-1,-1,-1,-1,-1,-1,-1,-1,-1,-1,-1,-1,-1,-1,-1,-1,-1,-1,-1,-1,-1,-1,-1,-1,-1,-1,-1,-1,-1,-1,-1,-1,-1,-1,-1,-1,-1,9,16,12,24,31,27,32,32,27,28,32,28,24,28,19,15,20,20,20,11,7,3,4,4,4,8,8,4,4,4,0,4,4,4,4,4,4,4,0,0,0,0,4,8,8,8,9,8,8,12,7,8,4,4,7,12,4,0,0,0,0,4,4,8,7,3,8,7,3,4,4,4,0,3,13,13,17,8,17,11,8,3,12,11,12,4,8,12,13,3,16,20,16,7,8,8,4,4,12,8,0,4,8,8,3,0,12,12,4,8,7,3,4,3,0,4,0,4,4,4,4,8,12,8,8,4,12,16,12,9,12,8,12,8,8,12,4,4,0,4,0,0,4,4,4,9,12,15,19,16,8,4,4,4,0,0,0,0,12,12,12,12,8,12,3,0,0,12,16,12,3,8,12,16,11,15,16,12,7,12,4,16,28,23,16,13,20,16,11,12,8,8,3,12,11,12,4,0,4,25,23,23,23,16,16,36,44,35,31,31,31,32,27,27,31,32,23,31,32,20,16,12,4,0,12,20,20,11,11,20,20,23,32,27,24,12,7,8,11,20,16,3,4,7,12,9,12,8,16,28,23,15,15,12,0,0,0,0,0,4,0,4,12,7,4,4,8,8,4,0,0,4,8,8,7,12,3,7,8,7,12,4,0,4,4,4,4,0,4,4,4,4,4,4,8,11,20,20,28,31,43,43,39,43,35,28,12,3,12,16,16,16,16,3,4,4,4,4,4,0,4,8,8,8,13,9,9,4,4,4,4,4,4,4,7,13,17,24,24,20,20,15,16,9,3,12,12,0,4,4,8,8,8,7,12,11,12,4,4,0,4,4,4,4,4,0,8,12,3,8,8,7,9,7,16,20,8,4,0,4,16,20,32,27,32,27,24,14,29,27,27,16,4,4,0,0,0,8,21,12,26,37,53,39,27,20,9,43,48,32,12,7,7,12,8,8,12,4,12,12,12,12,16,16,11,15,20,23,31,35,39,39,39,39,39,40,25,7,16,11,8,8,12,12,16,28,39,40,27,31,39,43,43,47,47,40,32,61,88,83,-1,-1,-1,-1,-1,-1,-1,-1,-1,-1,-1,-1,-1,-1,-1,-1,-1,-1,-1,-1,-1,-1,-1,-1,-1,-1,-1,-1,-1,-1,-1,-1,-1,-1,-1,-1,-1,-1,-1,-1,-1,-1,-1,-1,-1,-1,-1,-1,-1,-1,-1,-1,-1,-1,-1,-1,-1
-1,-1,-1,-1,-1,-1,-1,-1,-1,-1,-1,-1,-1,-1,-1,-1,-1,-1,-1,-1,-1,-1,-1,-1,-1,-1,-1,-1,-1,-1,-1,-1,-1,-1,-1,-1,-1,14,16,16,20,32,31,27,27,23,23,32,23,28,23,20,24,28,19,15,12,12,8,8,8,8,16,8,0,0,4,4,8,8,4,4,4,12,8,0,0,0,4,8,8,4,4,0,4,12,16,12,4,0,4,12,8,0,0,0,0,0,8,12,3,7,8,3,8,8,4,4,4,4,4,4,12,7,4,12,7,4,8,8,3,4,4,4,4,12,12,12,16,12,4,9,12,8,4,17,7,4,4,8,12,3,0,12,16,12,3,7,8,4,4,4,4,4,8,8,8,8,7,12,9,12,3,12,16,12,8,7,7,8,4,12,12,0,3,9,4,4,4,4,12,9,7,16,20,24,20,3,4,4,4,4,4,8,8,12,12,12,12,3,12,9,4,4,7,15,20,13,13,4,12,16,15,15,16,12,12,13,25,23,23,20,8,20,16,12,12,8,12,12,12,12,8,8,12,7,15,19,20,20,7,12,31,43,40,31,27,32,27,27,32,27,27,28,32,31,23,20,7,4,4,12,15,16,12,16,20,20,28,27,31,33,16,8,4,16,20,16,8,4,0,4,0,4,4,17,28,23,15,16,12,0,0,0,0,0,8,12,4,4,8,8,4,4,4,0,4,0,4,4,8,8,3,8,7,7,7,7,8,4,4,4,4,4,4,8,8,9,12,8,8,7,16,28,23,32,36,48,39,44,40,31,29,3,8,7,12,12,16,16,8,0,0,0,0,0,0,4,0,4,4,4,8,8,4,4,4,4,4,4,8,12,9,12,20,20,28,24,16,16,4,0,8,12,4,8,12,4,3,0,7,12,7,12,4,4,0,4,0,4,8,12,4,12,12,8,12,12,16,9,16,20,24,16,4,4,16,28,27,40,31,24,16,8,12,19,36,40,29,4,0,4,4,4,4,4,8,29,32,49,31,20,12,4,11,24,16,12,16,16,12,4,12,8,4,12,7,12,11,16,20,16,12,15,20,28,40,43,39,39,39,39,35,25,8,16,16,3,4,4,4,8,19,40,39,31,31,31,39,47,54,60,32,23,48,84,83,-1,-1,-1,-1,-1,-1,-1,-1,-1,-1,-1,-1,-1,-1,-1,-1,-1,-1,-1,-1,-1,-1,-1,-1,-1,-1,-1,-1,-1,-1,-1,-1,-1,-1,-1,-1,-1,-1,-1,-1,-1,-1,-1,-1,-1,-1,-1,-1,-1,-1,-1,-1,-1,-1,-1,-1,-1
-1,-1,-1,-1,-1,-1,-1,-1,-1,-1,-1,-1,-1,-1,-1,-1,-1,-1,-1,-1,-1,-1,-1,-1,-1,-1,-1,-1,-1,-1,-1,-1,-1,-1,-1,-1,-1,4,12,24,23,28,31,27,28,23,28,27,28,27,27,15,20,28,24,15,12,12,4,12,8,16,16,8,0,0,3,12,9,4,4,0,0,8,12,4,0,4,8,8,4,0,0,0,4,12,16,12,0,0,8,12,4,0,0,0,0,0,12,12,12,7,12,7,8,9,9,17,12,17,16,7,12,8,0,4,4,4,4,4,9,4,9,9,17,20,11,7,12,8,0,0,4,8,8,7,17,12,8,8,8,4,4,12,16,12,8,12,4,4,4,4,8,4,8,4,4,8,8,3,4,4,4,8,12,3,0,7,12,4,0,12,12,0,4,3,8,9,12,4,8,9,11,15,20,20,16,8,4,4,4,4,4,3,7,9,8,8,12,4,0,0,0,8,12,20,20,4,12,8,12,15,15,16,12,7,12,4,16,20,24,16,8,15,12,8,12,8,7,12,11,12,4,12,15,15,15,19,25,12,12,21,36,43,39,31,28,28,27,28,27,27,27,23,36,39,36,28,17,12,8,12,16,12,12,16,16,16,19,32,36,23,11,8,4,12,15,15,12,8,8,4,4,4,4,12,20,23,20,12,8,0,4,4,4,4,12,16,12,4,4,0,4,0,0,4,8,4,8,4,3,4,8,8,7,12,12,7,12,8,8,8,12,8,8,12,4,8,12,7,12,12,20,32,31,31,31,43,44,31,32,32,23,8,4,8,7,7,7,12,8,4,4,4,4,4,4,12,8,0,0,0,4,4,4,4,4,0,4,8,8,4,0,4,16,16,24,24,12,8,8,12,3,7,8,12,12,4,8,8,8,12,3,4,12,8,4,8,9,7,16,20,7,7,16,12,11,15,20,12,16,24,23,20,12,12,28,31,35,44,41,33,23,11,25,27,45,39,23,8,0,8,12,4,8,13,17,33,31,31,25,3,13,9,13,8,7,12,12,11,9,8,4,4,8,12,7,12,12,16,15,12,12,15,15,20,40,43,43,39,39,35,35,23,4,16,20,17,9,9,25,12,20,40,47,43,27,28,44,47,63,69,36,19,49,75,79,-1,-1,-1,-1,-1,-1,-1,-1,-1,-1,-1,-1,-1,-1,-1,-1,-1,-1,-1,-1,-1,-1,-1,-1,-1,-1,-1,-1,-1,-1,-1,-1,-1,-1,-1,-1,-1,-1,-1,-1,-1,-1,-1,-1,-1,-1,-1,-1,-1,-1,-1,-1,-1,-1,-1,-1,-1
-1,-1,-1,-1,-1,-1,-1,-1,-1,-1,-1,-1,-1,-1,-1,-1,-1,-1,-1,-1,-1,-1,-1,-1,-1,-1,-1,-1,-1,-1,-1,-1,-1,-1,-1,-1,-1,9,12,29,28,28,31,27,32,23,28,27,28,32,31,25,20,32,23,16,12,12,9,12,12,16,20,17,4,4,3,8,4,9,8,0,0,4,12,8,0,8,12,4,0,0,4,4,8,7,12,8,4,4,12,8,0,0,4,4,9,9,21,20,16,7,16,16,8,4,4,17,20,20,16,12,12,8,4,4,4,4,8,12,8,4,9,3,8,16,16,7,12,4,0,0,0,4,4,8,8,12,4,12,9,4,8,8,12,12,8,9,8,8,8,7,12,4,4,0,0,4,0,8,12,4,4,8,9,13,3,12,12,0,0,8,12,4,0,4,8,4,8,4,4,4,16,24,23,20,12,4,0,0,4,4,4,8,12,9,4,8,8,9,3,0,0,12,16,16,17,8,8,3,8,20,20,16,4,8,12,12,12,16,16,7,8,20,17,4,4,4,8,8,7,12,4,12,23,28,20,20,20,12,4,16,40,47,43,31,28,23,28,20,27,31,28,23,31,39,44,32,16,12,12,12,11,12,16,16,12,16,24,27,36,32,16,7,8,12,15,15,16,12,4,0,4,4,12,16,15,15,16,12,4,0,8,12,8,8,12,15,16,12,4,8,8,4,4,8,12,4,4,8,8,4,4,4,12,16,16,16,12,9,12,4,8,12,12,8,4,12,7,12,16,15,23,31,35,31,31,39,40,23,28,23,28,17,4,3,7,7,7,8,8,12,4,4,8,9,8,12,12,0,0,0,0,0,4,8,8,4,8,8,4,4,0,4,8,12,16,11,8,3,12,7,8,7,7,9,8,8,12,12,8,12,8,4,12,8,8,12,12,15,15,23,25,21,28,16,16,28,24,12,12,20,23,23,24,29,36,52,48,49,37,24,22,23,32,43,51,40,16,3,0,12,16,12,12,4,16,23,36,37,18,16,12,4,4,4,7,16,16,8,0,4,0,0,12,12,12,11,12,12,16,12,7,20,20,15,32,48,47,39,35,44,39,27,8,12,15,16,12,12,28,29,30,65,63,47,28,20,40,47,63,59,40,28,44,76,78,-1,-1,-1,-1,-1,-1,-1,-1,-1,-1,-1,-1,-1,-1,-1,-1,-1,-1,-1,-1,-1,-1,-1,-1,-1,-1,-1,-1,-1,-1,-1,-1,-1,-1,-1,-1,-1,-1,-1,-1,-1,-1,-1,-1,-1,-1,-1,-1,-1,-1,-1,-1,-1,-1,-1,-1,-1
-1,-1,-1,-1,-1,-1,-1,-1,-1,-1,-1,-1,-1,-1,-1,-1,-1,-1,-1,-1,-1,-1,-1,-1,-1,-1,-1,-1,-1,-1,-1,-1,-1,-1,-1,-1,-1,0,4,25,23,23,23,31,44,37,20,23,28,27,31,24,20,27,33,21,8,4,0,4,12,16,16,12,4,8,13,4,9,8,16,4,0,0,8,12,4,12,8,4,4,4,8,8,4,7,12,3,8,8,4,3,4,9,12,8,8,8,12,15,11,16,20,20,7,17,12,21,24,20,17,8,7,12,7,12,8,8,7,17,9,8,4,4,3,12,7,12,8,0,0,0,0,0,4,3,8,8,4,4,4,4,4,0,8,12,4,4,0,3,16,20,11,8,4,3,4,4,8,18,20,3,7,12,4,4,4,12,12,0,0,4,12,8,0,0,4,0,4,0,0,8,16,20,23,25,8,0,0,0,8,12,8,7,3,4,8,8,4,4,4,4,4,12,16,12,3,4,3,8,9,16,16,12,4,4,8,21,16,8,12,4,12,16,12,4,4,0,4,4,9,4,9,16,23,28,20,20,15,12,0,12,40,47,44,32,23,23,20,15,28,31,27,28,31,39,43,32,16,9,7,12,11,12,12,12,12,16,20,28,31,28,16,12,12,16,15,15,15,12,0,4,8,8,7,16,20,16,12,12,0,0,12,12,4,3,13,20,20,7,4,3,3,4,8,9,8,0,0,4,0,4,0,4,16,20,20,16,11,9,8,0,4,4,4,4,8,8,7,12,20,23,32,44,39,31,31,31,28,20,23,23,20,12,4,8,7,7,8,4,12,8,0,4,0,12,12,12,12,0,0,0,0,0,8,12,4,0,4,4,4,8,4,8,3,7,8,3,4,12,7,12,7,8,7,4,3,16,16,11,12,12,7,8,8,3,12,8,12,20,28,28,30,30,32,20,16,28,20,4,4,12,15,19,28,28,39,63,65,40,28,20,13,32,44,60,63,54,18,4,4,12,16,12,0,8,16,20,23,28,13,11,13,17,8,8,17,11,20,12,4,0,0,0,12,16,12,12,8,8,12,3,17,24,23,20,28,43,47,43,31,43,47,41,17,12,20,20,16,12,32,38,40,78,67,48,28,15,28,43,59,59,43,31,43,72,78,72,-1,-1,-1,-1,-1,-1,-1,-1,-1,-1,-1,-1,-1,-1,-1,-1,-1,-1,-1,-1,-1,-1,-1,-1,-1,-1,-1,-1,-1,-1,-1,-1,-1,-1,-1,-1,-1,-1,-1,-1,-1,-1,-1,-1,-1,-1,-1,-1,-1,-1,-1,-1,-1,-1,-1,-1
-1,-1,-1,-1,-1,-1,-1,-1,-1,-1,-1,-1,-1,-1,-1,-1,-1,-1,-1,-1,-1,-1,-1,-1,-1,-1,-1,-1,-1,-1,-1,-1,-1,-1,-1,-1,-1,4,4,12,19,24,16,36,43,45,20,23,28,23,35,32,15,19,15,8,4,4,4,4,4,12,7,12,8,8,9,4,8,12,16,12,4,0,8,12,0,12,8,8,8,4,4,3,4,12,7,8,8,3,4,12,8,12,12,12,7,12,16,15,15,15,15,15,12,25,24,16,21,8,0,4,12,16,15,12,4,4,12,7,4,4,8,9,8,3,7,7,3,4,4,0,4,0,7,12,12,8,4,4,8,8,4,12,8,4,4,4,8,8,20,28,16,3,12,11,12,4,12,9,16,9,11,16,3,0,4,8,12,4,0,0,8,12,4,4,0,0,0,0,0,12,15,15,20,15,8,0,0,0,12,12,0,8,12,4,3,0,4,4,4,4,12,11,12,8,12,9,8,7,4,7,12,4,0,0,4,12,16,4,4,4,7,12,8,13,13,4,12,4,3,8,9,25,23,20,24,23,20,12,4,12,40,43,31,27,28,19,15,16,28,31,32,28,31,40,44,32,15,12,8,7,12,8,12,12,8,16,20,19,27,23,15,16,16,20,20,20,20,16,4,8,12,7,12,12,16,12,8,12,4,0,8,12,3,8,7,12,11,12,4,8,8,4,4,0,4,0,0,0,8,12,4,8,11,20,20,20,12,4,4,0,0,4,4,8,8,4,12,16,20,31,40,43,48,35,31,28,20,15,15,15,15,12,3,12,12,12,9,8,7,3,4,8,8,7,12,12,12,4,4,4,4,4,7,12,4,4,4,4,4,4,4,4,8,12,3,4,4,12,7,12,8,4,8,8,12,11,16,16,4,4,12,7,4,8,8,4,12,11,19,29,21,25,23,16,11,20,16,0,0,8,12,16,20,24,49,67,90,62,36,33,14,37,47,67,72,41,4,3,8,7,16,11,8,3,12,11,20,28,12,13,13,16,12,8,12,20,28,20,17,4,4,4,16,20,11,8,3,8,12,3,8,15,23,28,27,43,47,44,31,47,47,36,12,3,20,23,23,4,24,20,21,47,60,43,28,16,15,40,59,60,43,39,47,67,74,67,-1,-1,-1,-1,-1,-1,-1,-1,-1,-1,-1,-1,-1,-1,-1,-1,-1,-1,-1,-1,-1,-1,-1,-1,-1,-1,-1,-1,-1,-1,-1,-1,-1,-1,-1,-1,-1,-1,-1,-1,-1,-1,-1,-1,-1,-1,-1,-1,-1,-1,-1,-1,-1,-1,-1,-1
-1,-1,-1,-1,-1,-1,-1,-1,-1,-1,-1,-1,-1,-1,-1,-1,-1,-1,-1,-1,-1,-1,-1,-1,-1,-1,-1,-1,-1,-1,-1,-1,-1,-1,-1,-1,-1,3,3,12,16,15,16,28,57,43,24,15,20,28,35,41,25,25,21,13,13,3,0,8,12,4,4,12,8,4,0,4,12,16,15,16,12,4,8,8,4,12,11,12,4,4,4,8,8,4,7,12,3,8,8,12,12,20,20,12,12,12,20,20,24,23,20,15,16,23,29,12,8,0,3,9,12,25,19,12,0,0,4,8,8,4,12,12,4,8,8,8,13,13,3,4,3,9,16,16,16,16,7,8,4,4,0,8,12,4,3,4,3,12,24,28,16,7,15,20,12,4,0,8,12,4,16,16,11,9,8,3,12,8,0,0,4,4,12,8,0,4,4,4,4,12,15,16,16,20,17,4,4,4,12,8,8,9,8,8,13,12,3,3,12,9,7,16,4,4,8,8,4,8,8,4,0,0,0,0,4,12,8,4,4,8,8,4,4,4,4,12,7,12,11,12,4,16,15,16,20,28,20,12,8,12,36,44,32,27,23,23,20,16,28,31,27,32,40,40,35,32,16,12,4,8,8,4,8,12,3,16,20,24,23,20,15,15,15,20,20,20,16,11,12,12,12,12,16,12,12,12,4,8,8,4,4,12,11,16,20,16,8,8,4,7,7,8,4,0,0,0,0,0,12,12,0,4,12,16,23,24,7,8,4,0,0,8,12,4,4,0,12,15,23,31,39,47,52,49,36,24,16,20,16,16,16,8,4,12,7,4,4,4,7,12,4,3,8,7,12,11,12,12,8,4,4,7,16,3,4,4,4,4,4,8,8,3,12,7,8,8,4,4,8,8,4,4,0,4,12,12,12,8,0,0,12,12,4,4,4,4,8,7,16,12,12,12,15,7,12,16,12,4,0,3,12,7,16,20,37,65,76,63,47,37,9,33,61,76,64,28,4,8,3,12,11,12,7,8,4,8,33,44,28,8,21,25,12,8,12,28,32,28,20,4,8,9,16,15,12,4,8,8,4,4,4,16,28,27,31,43,47,40,40,51,56,40,21,13,25,36,35,26,20,24,9,35,47,48,32,16,16,45,60,51,48,52,55,67,74,71,-1,-1,-1,-1,-1,-1,-1,-1,-1,-1,-1,-1,-1,-1,-1,-1,-1,-1,-1,-1,-1,-1,-1,-1,-1,-1,-1,-1,-1,-1,-1,-1,-1,-1,-1,-1,-1,-1,-1,-1,-1,-1,-1,-1,-1,-1,-1,-1,-1,-1,-1,-1,-1,-1,-1,-1
-1,-1,-1,-1,-1,-1,-1,-1,-1,-1,-1,-1,-1,-1,-1,-1,-1,-1,-1,-1,-1,-1,-1,-1,-1,-1,-1,-1,-1,-1,-1,-1,-1,-1,-1,-1,-1,9,8,12,16,20,20,23,39,53,29,12,16,27,35,28,16,12,3,4,4,4,0,12,16,12,4,9,9,13,9,13,17,16,16,15,12,0,8,8,9,11,20,12,0,8,12,4,3,0,8,12,7,12,12,16,16,20,20,16,12,12,23,28,19,23,23,20,20,28,24,12,3,4,4,4,12,20,15,7,0,4,0,4,12,8,12,12,0,4,0,4,4,4,4,8,4,7,16,20,20,20,20,8,0,0,4,0,3,8,12,17,9,11,20,19,15,20,23,24,16,8,12,8,4,4,16,16,16,13,12,3,12,12,0,0,0,0,12,12,0,3,13,13,3,12,15,12,16,16,7,4,4,4,0,4,12,8,4,12,4,12,8,4,8,8,7,12,4,4,4,7,12,9,17,12,8,3,0,4,8,8,8,8,4,4,4,4,4,4,8,11,16,16,16,12,0,12,12,16,20,28,20,12,12,12,32,35,27,23,23,23,16,20,23,32,27,27,35,35,31,28,12,12,8,0,0,0,4,4,12,11,16,20,20,20,20,20,20,24,24,20,16,16,16,11,12,7,20,16,12,12,0,4,8,8,4,12,15,15,15,16,12,4,4,8,7,7,8,4,0,0,0,0,12,12,0,0,4,16,32,23,7,8,8,4,0,12,12,0,0,0,12,15,28,35,48,51,47,39,31,20,12,16,16,16,16,3,4,12,8,0,0,0,12,12,8,12,4,7,16,16,3,7,16,7,12,21,25,7,12,4,4,4,4,4,7,16,16,12,12,7,8,4,4,4,4,8,8,4,7,12,4,4,0,0,8,9,8,4,4,4,4,8,8,4,0,3,12,9,3,12,7,8,4,8,7,16,12,15,20,36,69,70,69,41,17,30,61,67,52,20,4,7,8,7,16,7,8,4,0,12,36,55,44,20,16,11,12,17,24,41,35,35,28,8,4,8,20,20,17,4,4,4,0,0,0,12,20,32,44,47,47,40,40,51,50,45,8,8,25,36,43,33,29,31,17,32,43,39,31,25,12,40,51,47,47,47,51,67,74,76,-1,-1,-1,-1,-1,-1,-1,-1,-1,-1,-1,-1,-1,-1,-1,-1,-1,-1,-1,-1,-1,-1,-1,-1,-1,-1,-1,-1,-1,-1,-1,-1,-1,-1,-1,-1,-1,-1,-1,-1,-1,-1,-1,-1,-1,-1,-1,-1,-1,-1,-1,-1,-1,-1,-1,-1
-1,-1,-1,-1,-1,-1,-1,-1,-1,-1,-1,-1,-1,-1,-1,-1,-1,-1,-1,-1,-1,-1,-1,-1,-1,-1,-1,-1,-1,-1,-1,-1,-1,-1,-1,-1,-1,4,12,20,20,16,16,28,39,40,20,12,16,36,36,20,12,12,7,4,4,4,4,12,16,12,0,0,0,8,9,8,4,8,17,16,11,9,12,12,13,24,28,16,4,8,12,4,8,9,8,8,16,20,15,19,20,28,23,15,12,16,28,27,28,23,28,23,23,24,20,20,17,9,4,4,12,16,12,7,4,8,4,0,12,12,8,12,4,4,8,8,4,4,8,8,12,16,16,20,20,20,20,12,9,4,7,12,12,12,21,16,4,16,20,24,23,23,27,19,11,8,8,12,9,8,11,16,12,4,12,4,12,12,0,0,4,4,17,7,4,4,4,0,0,12,16,12,7,16,7,8,8,8,8,4,7,3,4,4,4,8,8,4,4,8,7,7,9,8,0,8,12,4,8,12,7,16,13,4,12,9,8,3,0,4,0,8,12,8,13,24,24,16,12,12,0,8,12,7,20,20,16,12,12,12,23,31,32,23,28,20,16,15,27,31,27,32,36,36,31,23,12,12,7,12,8,0,0,0,12,12,16,20,20,24,24,20,20,20,20,16,11,16,20,16,4,8,15,20,16,17,4,4,3,4,12,11,16,20,20,15,12,0,0,4,12,7,8,8,4,0,0,0,12,12,0,0,4,12,28,28,12,4,8,8,4,12,12,0,0,0,12,15,28,39,47,51,48,39,40,20,7,12,16,15,12,8,12,4,4,4,4,4,7,12,12,12,0,12,15,16,12,17,20,20,11,21,23,15,12,8,9,8,0,0,12,15,16,16,20,17,9,4,4,8,8,4,4,8,12,4,0,0,0,0,4,0,3,4,8,8,4,4,4,0,3,9,4,4,8,7,7,8,4,4,17,16,16,15,15,24,49,60,51,41,21,21,53,51,40,17,8,7,3,17,11,7,3,4,4,20,44,75,82,37,21,8,9,29,36,44,52,48,32,12,0,12,15,16,12,4,0,0,0,0,0,12,15,28,39,47,51,49,35,43,47,41,9,11,15,27,39,37,33,44,26,24,31,35,31,28,20,40,51,47,47,47,47,63,75,71,-1,-1,-1,-1,-1,-1,-1,-1,-1,-1,-1,-1,-1,-1,-1,-1,-1,-1,-1,-1,-1,-1,-1,-1,-1,-1,-1,-1,-1,-1,-1,-1,-1,-1,-1,-1,-1,-1,-1,-1,-1,-1,-1,-1,-1,-1,-1,-1,-1,-1,-1,-1,-1,-1,-1,-1
-1,-1,-1,-1,-1,-1,-1,-1,-1,-1,-1,-1,-1,-1,-1,-1,-1,-1,-1,-1,-1,-1,-1,-1,-1,-1,-1,-1,-1,-1,-1,-1,-1,-1,-1,-1,-1,17,25,32,19,7,16,28,31,28,15,12,25,36,27,24,12,17,16,8,8,12,8,7,12,8,0,0,4,12,4,12,4,4,0,3,12,4,12,8,13,33,23,11,8,3,12,7,12,9,12,4,29,27,28,32,27,32,23,20,16,16,20,32,31,27,27,23,24,16,12,15,16,12,7,12,12,12,8,8,4,8,8,4,12,12,4,12,8,8,12,3,4,4,4,4,12,15,15,15,15,16,12,12,7,8,11,17,17,11,11,16,4,12,15,24,32,32,27,28,16,4,4,12,8,4,16,11,8,12,12,0,12,12,0,4,12,8,8,12,4,4,4,8,12,7,16,4,12,16,12,4,4,4,4,4,8,8,4,4,0,4,12,8,0,4,8,8,8,12,4,9,12,8,4,4,7,12,8,8,8,4,4,8,4,8,4,12,8,0,12,28,28,12,12,12,0,8,4,17,16,16,12,12,8,8,15,23,28,27,28,15,15,20,36,39,36,28,27,31,27,19,16,7,12,16,12,0,0,0,12,12,12,16,15,20,20,28,23,15,15,12,16,16,16,12,4,3,20,23,20,12,4,8,8,3,12,7,16,24,23,20,12,4,0,0,8,12,3,8,8,4,4,4,12,8,0,0,8,12,24,28,12,4,3,12,8,8,12,4,0,0,12,15,32,48,47,43,43,43,44,24,7,8,12,16,12,7,16,4,0,8,12,12,7,12,11,12,4,12,15,15,12,12,23,28,16,16,23,24,16,12,9,12,4,4,12,16,15,15,15,12,0,0,0,0,0,0,4,12,8,0,0,0,0,0,0,4,8,8,4,4,0,0,4,4,4,4,4,4,3,7,8,4,0,0,12,15,15,15,15,19,27,27,37,28,16,0,20,41,29,13,7,7,8,7,12,7,8,8,4,20,48,87,100,54,25,9,29,36,44,47,47,43,28,12,0,12,15,12,8,8,4,4,0,4,4,12,16,28,35,48,47,39,43,47,43,27,4,20,20,23,31,33,39,39,20,16,27,31,31,31,32,35,47,56,43,47,47,59,62,59,-1,-1,-1,-1,-1,-1,-1,-1,-1,-1,-1,-1,-1,-1,-1,-1,-1,-1,-1,-1,-1,-1,-1,-1,-1,-1,-1,-1,-1,-1,-1,-1,-1,-1,-1,-1,-1,-1,-1,-1,-1,-1,-1,-1,-1,-1,-1,-1,-1,-1,-1,-1,-1,-1,-1,-1
-1,-1,-1,-1,-1,-1,-1,-1,-1,-1,-1,-1,-1,-1,-1,-1,-1,-1,-1,-1,-1,-1,-1,-1,-1,-1,-1,-1,-1,-1,-1,-1,-1,-1,-1,-1,-1,20,23,36,34,9,8,20,23,20,24,20,37,40,32,20,12,4,7,12,8,12,9,8,8,3,4,4,8,17,9,12,3,3,12,8,9,0,9,0,4,25,23,12,4,12,16,16,12,9,12,9,38,35,27,36,40,36,32,20,20,20,20,28,31,31,31,28,16,0,12,15,20,20,20,11,11,17,3,3,4,3,12,8,12,12,0,12,12,12,16,12,4,4,0,0,12,15,15,15,15,12,12,11,16,16,12,12,12,7,12,12,13,20,20,24,27,32,27,27,12,4,4,8,12,4,8,12,4,8,12,4,12,12,0,8,16,17,4,4,4,8,8,12,12,8,12,4,12,16,12,4,0,4,0,4,8,8,13,3,0,0,12,12,0,0,4,4,3,3,4,4,8,12,7,9,8,12,7,12,8,0,0,0,4,0,4,4,8,12,20,32,23,7,17,7,4,8,9,4,12,16,11,8,4,4,12,24,32,32,23,15,16,23,35,39,40,32,23,27,23,24,20,16,12,15,12,0,0,4,12,11,12,12,16,15,15,28,28,15,15,12,8,12,7,9,8,8,16,23,28,20,12,3,12,11,12,3,12,20,23,20,7,8,4,0,4,12,8,4,4,4,4,9,4,8,0,4,12,8,20,25,3,8,8,12,12,4,12,8,0,0,12,20,36,43,48,39,43,47,43,28,12,3,12,7,4,17,16,8,4,12,8,8,12,7,12,12,8,8,16,20,16,12,23,31,29,25,23,20,16,16,9,12,8,8,3,12,16,16,16,16,4,0,0,8,12,4,8,8,4,0,0,0,4,4,4,8,7,3,4,4,9,9,13,3,0,0,0,0,8,12,4,0,4,4,12,16,15,15,15,20,23,20,8,21,30,30,8,21,20,4,12,7,12,7,8,8,4,4,4,20,44,88,87,52,29,13,41,39,43,59,60,40,20,7,0,12,15,12,4,4,12,8,4,8,8,4,12,28,31,43,43,43,43,47,48,28,9,19,29,24,23,19,25,35,24,17,23,27,36,35,40,44,52,50,52,43,51,59,54,51,47,-1,-1,-1,-1,-1,-1,-1,-1,-1,-1,-1,-1,-1,-1,-1,-1,-1,-1,-1,-1,-1,-1,-1,-1,-1,-1,-1,-1,-1,-1,-1,-1,-1,-1,-1,-1,-1,-1,-1,-1,-1,-1,-1,-1,-1,-1,-1,-1,-1,-1,-1,-1,-1,-1,-1
-1,-1,-1,-1,-1,-1,-1,-1,-1,-1,-1,-1,-1,-1,-1,-1,-1,-1,-1,-1,-1,-1,-1,-1,-1,-1,-1,-1,-1,-1,-1,-1,-1,-1,-1,-1,-1,28,27,36,29,4,4,25,23,24,28,23,40,40,28,16,0,4,8,12,4,4,4,8,9,8,0,0,8,12,4,0,4,8,17,12,9,4,9,3,0,16,20,7,4,17,16,7,12,8,4,12,32,35,31,36,39,40,32,19,20,28,23,28,31,35,31,23,9,12,21,29,37,32,19,12,12,7,8,8,12,8,12,12,12,12,4,12,8,12,16,12,8,12,9,4,12,15,15,15,16,12,12,12,16,16,7,0,4,4,0,4,12,15,15,20,28,23,28,32,25,8,8,12,8,8,4,4,4,4,8,8,12,12,4,12,16,12,4,4,8,7,12,9,12,4,4,8,16,16,12,3,0,3,9,8,8,8,4,4,0,4,12,8,0,0,0,0,8,12,12,7,8,8,3,3,9,16,12,12,12,0,0,3,13,13,3,4,12,7,20,27,32,16,8,12,12,7,4,4,7,16,16,4,4,0,4,20,27,32,23,24,16,32,40,39,35,27,23,23,23,19,20,16,16,15,12,0,0,8,12,12,16,12,12,16,15,23,28,20,15,12,0,0,4,4,3,3,16,28,27,28,20,12,12,15,12,8,12,12,20,16,7,7,8,4,0,12,12,4,4,4,4,8,4,8,4,8,8,4,12,12,12,7,12,16,12,0,8,12,4,4,12,20,31,43,43,39,43,43,43,28,12,8,12,4,4,12,15,12,8,12,3,4,7,7,12,11,12,3,16,20,16,4,15,31,38,25,19,15,20,20,8,4,4,8,8,4,7,12,16,16,8,0,0,12,12,0,4,0,4,0,0,4,12,8,0,4,12,8,0,0,8,12,4,4,4,0,4,4,12,8,0,4,8,8,3,12,16,15,16,16,20,16,4,8,16,20,17,8,9,17,20,7,8,8,4,4,0,4,12,16,40,84,87,60,38,22,45,39,48,63,64,40,24,7,9,11,16,16,4,0,12,12,12,7,0,4,16,28,36,43,39,39,43,51,52,32,9,20,15,20,28,23,30,40,16,3,20,23,40,39,39,39,43,51,47,51,59,54,47,47,43,-1,-1,-1,-1,-1,-1,-1,-1,-1,-1,-1,-1,-1,-1,-1,-1,-1,-1,-1,-1,-1,-1,-1,-1,-1,-1,-1,-1,-1,-1,-1,-1,-1,-1,-1,-1,-1,-1,-1,-1,-1,-1,-1,-1,-1,-1,-1,-1,-1,-1,-1,-1,-1,-1,-1
-1,-1,-1,-1,-1,-1,-1,-1,-1,-1,-1,-1,-1,-1,-1,-1,-1,-1,-1,-1,-1,-1,-1,-1,-1,-1,-1,-1,-1,-1,-1,-1,-1,-1,-1,-1,-1,23,31,35,28,12,4,25,31,32,32,27,35,45,24,12,12,8,8,12,4,4,4,12,4,12,4,0,4,8,8,8,9,3,8,12,8,13,4,8,0,12,15,12,4,17,12,4,13,7,20,23,27,31,31,35,35,35,31,27,28,27,27,32,36,40,36,19,4,17,30,27,27,32,20,12,4,8,8,4,8,12,12,12,12,7,8,8,3,12,12,12,12,12,8,12,11,16,20,20,16,16,16,7,12,11,12,8,9,11,12,12,11,16,20,20,20,20,28,27,20,12,9,11,13,9,13,12,12,4,4,12,16,12,8,12,16,7,8,8,3,12,11,9,8,0,0,4,20,24,16,8,0,4,0,7,12,4,0,0,4,8,8,4,0,0,0,0,12,12,12,11,12,4,4,0,4,12,8,8,12,4,4,4,4,4,4,12,16,12,16,28,27,25,8,4,12,12,8,8,12,16,12,0,8,9,8,17,28,23,28,24,15,27,35,43,39,27,23,23,19,23,24,20,20,16,17,4,4,12,7,12,16,12,12,11,25,23,23,24,20,17,8,8,4,8,12,8,11,19,36,31,23,15,16,16,12,12,16,12,11,12,8,7,7,8,4,12,8,8,12,4,4,4,4,0,4,4,0,4,4,8,11,16,12,15,12,4,9,12,3,8,12,20,40,43,43,39,43,39,44,32,16,12,8,9,8,16,16,7,12,7,8,4,7,12,11,12,12,8,12,15,15,12,12,28,25,8,16,20,28,23,12,0,0,4,4,4,9,12,16,15,12,0,0,12,12,4,4,12,8,0,4,12,16,12,0,4,12,8,0,0,12,12,0,0,8,9,7,8,8,4,0,8,12,8,12,8,12,15,12,12,7,12,7,16,16,12,12,17,25,23,20,13,12,8,0,4,4,8,11,16,32,76,93,62,25,17,37,36,44,51,47,39,28,12,12,12,16,16,8,4,16,11,11,17,12,4,16,19,36,39,35,35,43,56,47,32,9,16,16,20,27,32,39,39,21,12,20,28,44,47,43,35,43,47,47,55,63,68,48,43,40,20,-1,-1,-1,-1,-1,-1,-1,-1,-1,-1,-1,-1,-1,-1,-1,-1,-1,-1,-1,-1,-1,-1,-1,-1,-1,-1,-1,-1,-1,-1,-1,-1,-1,-1,-1,-1,-1,-1,-1,-1,-1,-1,-1,-1,-1,-1,-1,-1,-1,-1,-1,-1,-1,-1
-1,-1,-1,-1,-1,-1,-1,-1,-1,-1,-1,-1,-1,-1,-1,-1,-1,-1,-1,-1,-1,-1,-1,-1,-1,-1,-1,-1,-1,-1,-1,-1,-1,-1,-1,-1,17,24,41,35,27,20,12,29,36,36,31,31,35,31,20,4,12,12,12,12,8,12,9,4,9,12,8,0,0,4,8,8,4,0,4,4,3,3,4,8,9,7,20,20,17,12,17,8,9,12,29,31,31,32,32,40,40,35,35,35,31,31,31,31,36,35,36,29,21,9,20,32,23,28,20,17,4,4,4,0,4,12,16,16,12,7,12,3,8,7,7,7,12,7,12,11,12,12,15,15,15,19,25,12,12,3,4,4,12,15,19,29,21,11,15,15,15,20,28,27,28,16,4,12,12,4,4,16,11,8,4,12,15,12,16,15,11,12,3,3,8,11,16,4,4,4,4,4,21,24,16,3,0,4,0,8,12,4,4,4,8,8,4,0,4,4,4,4,12,4,12,7,12,4,8,12,4,4,4,4,3,4,4,0,0,0,0,12,15,12,8,15,23,15,3,0,8,9,7,3,3,16,7,4,7,13,12,8,20,23,23,19,28,27,31,43,43,28,15,15,23,27,19,24,20,12,7,4,4,3,7,7,12,8,12,16,16,24,19,19,20,7,3,7,8,7,12,9,21,33,40,36,27,23,16,12,12,16,12,12,11,12,3,7,7,3,4,3,3,12,8,0,0,0,0,8,12,9,12,3,0,8,16,16,16,15,16,12,4,4,3,12,8,20,31,35,43,39,43,39,31,23,15,16,12,4,12,11,12,7,12,12,11,0,12,16,20,12,16,12,12,16,15,12,0,12,12,4,3,16,28,23,12,0,0,0,0,0,0,4,16,20,7,4,4,12,7,8,8,7,12,4,17,16,16,12,0,8,12,4,0,0,12,12,4,0,7,9,11,12,4,0,0,12,12,8,12,8,16,20,7,4,9,17,16,11,12,12,16,20,32,31,24,17,23,20,9,8,8,12,12,12,25,60,72,49,16,16,28,23,23,31,43,48,28,12,12,8,12,15,12,12,11,12,12,8,12,13,16,28,35,31,31,31,43,55,56,32,12,12,11,15,27,28,34,43,21,16,20,27,43,47,43,31,39,43,51,54,67,67,47,43,36,20,-1,-1,-1,-1,-1,-1,-1,-1,-1,-1,-1,-1,-1,-1,-1,-1,-1,-1,-1,-1,-1,-1,-1,-1,-1,-1,-1,-1,-1,-1,-1,-1,-1,-1,-1,-1,-1,-1,-1,-1,-1,-1,-1,-1,-1,-1,-1,-1,-1,-1,-1,-1,-1,-1
-1,-1,-1,-1,-1,-1,-1,-1,-1,-1,-1,-1,-1,-1,-1,-1,-1,-1,-1,-1,-1,-1,-1,-1,-1,-1,-1,-1,-1,-1,-1,-1,-1,-1,-1,-1,12,15,32,35,36,36,23,20,32,36,31,31,31,28,16,0,8,12,12,12,12,12,3,13,13,8,12,0,0,0,4,8,4,13,8,0,8,13,8,4,8,12,15,15,15,15,12,4,4,4,20,35,35,31,31,35,35,44,43,44,36,36,36,36,36,36,32,19,15,11,19,32,24,20,15,12,4,4,4,4,4,12,20,20,7,12,11,12,3,7,7,12,16,12,12,12,4,12,11,15,23,28,20,16,17,4,4,4,12,16,23,32,20,15,15,15,15,23,27,32,23,11,12,12,7,8,4,11,16,12,7,12,16,12,20,24,16,3,8,8,4,12,12,4,4,4,0,0,8,16,16,4,0,8,9,9,12,3,8,12,4,4,0,4,8,9,4,9,4,12,12,4,12,8,8,12,4,4,8,4,8,12,8,0,0,0,0,12,16,12,3,16,28,20,0,0,4,4,7,8,12,11,12,8,12,3,4,12,16,20,28,23,23,27,36,43,48,32,16,12,28,31,28,20,20,12,12,8,4,8,7,7,8,4,12,12,16,20,24,23,20,12,3,12,12,12,4,0,16,28,36,31,27,28,16,7,11,20,17,7,16,3,8,8,7,12,4,8,8,4,4,0,0,0,0,8,12,8,8,4,0,8,12,16,16,16,16,12,4,4,8,12,4,25,35,35,44,39,39,44,32,23,23,20,12,12,11,12,4,12,12,20,24,14,12,25,19,15,15,16,12,12,15,12,8,13,12,4,8,11,20,20,12,0,0,0,0,0,4,4,12,11,12,4,0,4,8,8,7,12,4,4,20,20,7,8,4,7,12,4,4,4,7,12,8,4,8,4,12,12,0,0,0,12,12,8,12,12,16,16,12,4,9,3,12,12,12,16,23,32,36,40,26,25,36,29,12,12,12,12,8,12,7,36,52,35,16,16,29,21,9,16,48,52,29,3,4,4,12,20,15,11,12,3,12,8,4,3,16,36,40,32,27,31,43,59,56,27,7,4,12,15,28,27,34,47,21,23,23,27,39,51,48,36,35,39,47,54,62,67,60,43,35,23,-1,-1,-1,-1,-1,-1,-1,-1,-1,-1,-1,-1,-1,-1,-1,-1,-1,-1,-1,-1,-1,-1,-1,-1,-1,-1,-1,-1,-1,-1,-1,-1,-1,-1,-1,-1,-1,-1,-1,-1,-1,-1,-1,-1,-1,-1,-1,-1,-1,-1,-1,-1,-1,-1
-1,-1,-1,-1,-1,-1,-1,-1,-1,-1,-1,-1,-1,-1,-1,-1,-1,-1,-1,-1,-1,-1,-1,-1,-1,-1,-1,-1,-1,-1,-1,-1,-1,-1,-1,-1,12,20,28,31,39,47,45,24,23,31,32,23,28,20,12,0,4,12,4,12,12,8,4,4,4,12,8,0,0,0,0,8,9,4,8,4,7,13,8,4,12,16,15,20,28,23,12,4,4,7,26,44,43,43,35,31,35,43,47,43,31,35,35,36,31,31,28,23,28,19,24,28,19,20,20,12,12,3,3,12,12,16,20,24,17,4,12,12,8,8,7,16,20,16,12,12,0,8,12,25,32,28,15,15,12,0,8,12,7,12,29,31,27,28,20,15,15,28,31,32,29,12,12,4,8,8,4,16,16,16,16,12,12,11,15,19,16,8,4,4,0,16,16,8,12,8,4,4,4,7,12,4,4,12,8,4,4,4,8,12,4,0,0,3,12,9,4,8,4,12,8,4,16,7,4,4,0,0,4,0,4,12,8,0,0,0,0,8,12,3,8,16,27,21,12,4,4,8,8,4,8,12,7,13,16,8,3,12,11,15,28,28,15,23,31,39,49,37,21,12,28,31,28,15,15,15,16,9,8,3,7,8,4,0,12,12,16,16,20,23,24,16,4,8,12,17,9,4,25,23,32,31,23,20,16,7,12,16,12,12,7,8,8,3,12,7,4,4,4,0,0,0,0,0,0,4,4,4,4,4,4,17,11,11,16,12,12,4,8,8,7,12,4,25,35,44,40,40,35,35,27,23,27,23,15,11,12,3,4,17,16,20,15,4,12,16,23,24,20,20,16,12,15,12,8,12,4,8,12,12,15,15,12,4,4,4,4,0,3,12,8,3,8,8,4,4,3,3,12,8,4,8,16,20,9,4,8,8,4,4,4,12,7,4,4,4,4,12,4,12,4,0,0,12,12,16,16,11,16,16,16,8,8,12,13,8,12,16,23,36,40,50,23,33,36,20,12,12,8,12,4,0,4,25,44,40,12,12,16,12,15,17,48,47,23,8,0,4,16,24,24,16,7,8,3,0,4,12,15,28,31,31,27,32,48,60,55,40,16,4,12,20,32,27,39,60,45,36,23,32,40,43,48,35,31,43,47,59,67,70,68,52,48,37,-1,-1,-1,-1,-1,-1,-1,-1,-1,-1,-1,-1,-1,-1,-1,-1,-1,-1,-1,-1,-1,-1,-1,-1,-1,-1,-1,-1,-1,-1,-1,-1,-1,-1,-1,-1,-1,-1,-1,-1,-1,-1,-1,-1,-1,-1,-1,-1,-1,-1,-1,-1,-1,-1
-1,-1,-1,-1,-1,-1,-1,-1,-1,-1,-1,-1,-1,-1,-1,-1,-1,-1,-1,-1,-1,-1,-1,-1,-1,-1,-1,-1,-1,-1,-1,-1,-1,-1,-1,-1,4,20,23,27,39,47,52,41,24,23,32,19,15,16,12,0,4,12,8,4,4,4,0,0,8,12,4,4,0,4,4,12,9,8,4,4,17,8,4,4,17,20,20,28,31,27,20,8,12,16,26,44,51,51,39,36,40,39,43,43,35,40,40,36,32,27,23,36,36,27,23,19,24,28,19,16,12,4,8,12,16,19,28,24,16,4,12,16,12,3,17,20,28,20,12,8,0,8,12,8,24,19,15,15,12,4,16,16,12,16,29,31,35,31,23,15,15,23,31,32,20,7,4,12,8,4,4,7,16,20,20,16,12,16,20,24,20,4,4,0,4,20,20,3,7,17,8,8,4,4,0,4,4,4,4,4,4,4,4,7,12,4,4,4,4,4,4,8,4,7,3,12,11,12,4,4,4,4,4,4,8,8,4,0,0,0,0,0,4,8,7,20,27,26,16,8,8,8,4,0,4,8,8,8,16,17,3,12,16,15,23,28,16,20,27,36,36,32,23,20,28,31,27,20,20,24,20,4,4,8,12,4,0,4,16,11,11,16,12,20,20,16,8,0,4,8,8,4,25,23,23,28,20,16,16,17,3,12,11,12,7,7,3,8,7,12,8,0,0,0,0,0,0,0,0,0,0,4,4,8,8,7,16,12,12,12,12,0,4,12,12,12,3,25,35,31,31,35,39,40,32,27,31,31,28,16,3,12,8,12,16,16,16,4,3,16,23,23,20,20,16,16,15,12,4,12,11,16,17,7,20,20,16,7,12,8,8,3,4,7,8,4,3,3,4,4,8,8,4,4,8,12,12,12,4,3,4,3,4,8,8,7,12,4,0,0,0,12,12,8,8,4,0,12,16,15,20,12,16,20,24,21,17,20,8,3,12,7,25,27,40,32,9,23,28,13,11,12,3,8,4,8,4,21,45,31,7,12,14,32,27,27,61,47,23,8,4,12,16,20,20,11,8,7,12,8,8,21,24,20,27,31,31,31,39,51,51,44,25,12,12,29,32,23,30,47,26,23,28,23,31,48,47,39,35,48,51,64,75,70,59,51,43,36,-1,-1,-1,-1,-1,-1,-1,-1,-1,-1,-1,-1,-1,-1,-1,-1,-1,-1,-1,-1,-1,-1,-1,-1,-1,-1,-1,-1,-1,-1,-1,-1,-1,-1,-1,-1,-1,-1,-1,-1,-1,-1,-1,-1,-1,-1,-1,-1,-1,-1,-1,-1,-1,-1
-1,-1,-1,-1,-1,-1,-1,-1,-1,-1,-1,-1,-1,-1,-1,-1,-1,-1,-1,-1,-1,-1,-1,-1,-1,-1,-1,-1,-1,-1,-1,-1,-1,-1,-1,-1,-1,17,24,32,36,48,55,53,25,24,32,28,20,12,8,0,8,12,4,0,0,0,0,0,12,12,0,8,9,8,3,12,9,8,4,0,12,12,12,8,12,15,15,28,31,35,32,18,24,20,25,35,60,58,52,36,35,35,48,43,39,35,35,31,27,27,27,40,44,32,27,23,23,28,20,15,16,9,12,12,16,28,23,15,16,12,12,15,16,12,7,15,23,29,17,8,4,12,12,8,12,16,16,16,12,12,16,15,15,15,24,32,40,39,32,15,15,15,28,31,28,12,4,12,7,4,12,7,16,28,23,15,16,16,20,19,20,4,13,9,13,16,16,12,12,8,4,4,8,8,7,12,12,4,9,3,8,12,4,17,7,8,8,4,4,4,4,4,4,12,8,12,12,4,12,8,8,12,4,4,4,4,0,0,0,0,4,8,9,8,8,15,27,21,16,13,8,4,0,0,4,4,3,4,12,12,8,16,20,20,20,20,12,12,27,31,27,36,31,27,27,32,27,24,20,20,20,12,4,12,8,0,4,8,11,16,12,16,12,11,15,15,12,12,8,4,4,4,7,20,20,20,15,12,16,7,8,7,16,11,7,7,8,3,12,11,12,4,4,4,4,3,4,4,4,4,4,8,12,4,3,12,8,12,12,8,12,4,4,7,20,16,4,20,31,32,32,40,39,35,31,31,35,36,28,16,12,16,12,8,12,12,7,16,8,16,32,36,24,20,20,15,16,12,4,12,15,15,12,12,16,15,16,16,17,9,12,12,9,8,3,4,12,8,0,4,0,4,0,4,12,8,8,12,8,8,4,12,8,4,12,7,12,8,0,0,4,12,8,4,8,8,4,12,20,23,24,17,7,23,33,21,17,24,20,4,12,9,12,23,27,19,4,20,21,12,11,12,3,0,4,4,4,12,32,31,17,11,13,31,50,35,60,56,25,4,12,16,15,16,16,16,4,12,12,4,4,12,20,15,28,35,35,36,48,47,47,43,25,16,16,24,28,20,26,35,20,16,15,24,36,47,47,39,39,43,51,63,75,70,60,47,47,32,-1,-1,-1,-1,-1,-1,-1,-1,-1,-1,-1,-1,-1,-1,-1,-1,-1,-1,-1,-1,-1,-1,-1,-1,-1,-1,-1,-1,-1,-1,-1,-1,-1,-1,-1,-1,-1,-1,-1,-1,-1,-1,-1,-1,-1,-1,-1,-1,-1,-1,-1,-1,-1,-1
-1,-1,-1,-1,-1,-1,-1,-1,-1,-1,-1,-1,-1,-1,-1,-1,-1,-1,-1,-1,-1,-1,-1,-1,-1,-1,-1,-1,-1,-1,-1,-1,-1,-1,-1,-1,-1,12,24,24,20,32,55,61,28,28,27,23,24,16,8,0,12,12,0,0,0,0,0,0,8,12,4,8,9,8,4,4,4,4,0,0,12,16,15,16,12,16,15,28,31,43,50,18,24,8,28,35,65,67,48,31,31,39,47,47,39,40,36,32,32,27,27,39,48,36,36,32,23,32,20,16,12,4,12,11,16,19,19,16,16,16,16,20,20,16,12,15,28,24,12,8,12,7,16,12,12,12,12,16,16,16,20,20,28,23,23,28,27,39,41,20,20,16,24,39,40,16,8,7,7,8,12,12,16,28,23,15,15,20,20,24,23,17,4,4,4,3,16,7,4,4,0,0,4,12,16,12,12,8,0,4,12,12,4,7,17,4,4,0,0,0,0,0,4,12,8,12,12,0,12,12,12,12,0,0,0,0,0,0,4,4,8,8,8,9,4,15,23,25,17,8,4,0,0,4,8,9,8,0,8,12,12,15,16,16,20,16,8,16,36,40,32,36,36,27,31,31,31,19,20,20,16,7,4,4,4,0,3,12,12,12,7,12,12,16,15,15,15,16,12,4,0,0,4,16,16,16,15,12,8,12,3,12,11,12,12,7,12,8,8,12,3,4,4,4,12,11,12,4,4,8,8,7,12,4,3,12,8,12,12,4,4,4,4,17,24,20,4,16,32,31,27,31,35,31,35,40,44,31,28,20,16,20,17,4,7,12,12,23,25,21,40,35,23,28,23,16,12,3,12,16,20,20,11,7,16,20,20,16,8,0,4,16,8,4,8,12,7,12,4,8,12,4,4,8,12,8,4,4,4,4,0,12,12,4,12,8,8,12,4,4,8,12,4,0,4,4,4,3,20,23,20,12,12,23,25,4,4,16,16,8,8,9,17,29,23,15,12,12,8,12,16,12,4,8,13,9,13,11,23,32,13,16,4,27,45,31,52,44,16,8,16,20,20,16,7,8,4,7,12,4,0,12,15,20,32,40,40,36,39,47,43,39,21,16,20,20,20,20,26,40,20,12,16,24,36,56,52,35,43,47,55,62,66,62,51,48,43,36,-1,-1,-1,-1,-1,-1,-1,-1,-1,-1,-1,-1,-1,-1,-1,-1,-1,-1,-1,-1,-1,-1,-1,-1,-1,-1,-1,-1,-1,-1,-1,-1,-1,-1,-1,-1,-1,-1,-1,-1,-1,-1,-1,-1,-1,-1,-1,-1,-1,-1,-1,-1,-1,-1
-1,-1,-1,-1,-1,-1,-1,-1,-1,-1,-1,-1,-1,-1,-1,-1,-1,-1,-1,-1,-1,-1,-1,-1,-1,-1,-1,-1,-1,-1,-1,-1,-1,-1,-1,-1,-1,20,29,21,8,25,48,47,40,35,32,24,20,16,8,0,12,12,0,0,0,0,0,0,4,12,8,4,0,4,4,4,4,4,4,4,12,15,23,29,16,12,15,27,31,43,37,12,16,21,40,43,56,59,43,31,35,48,51,43,39,35,36,27,27,32,27,44,43,39,44,32,32,31,23,16,8,9,8,16,20,24,24,16,12,11,16,23,32,20,12,20,23,24,16,12,12,12,16,16,16,7,12,12,16,15,23,28,27,27,23,24,20,36,40,20,12,12,32,43,39,28,12,7,7,12,16,16,15,19,20,16,16,23,28,19,23,20,4,0,0,4,12,8,4,4,4,4,4,7,16,13,7,4,4,4,12,11,12,12,8,0,0,0,0,0,0,0,8,12,3,12,8,4,12,7,12,8,0,0,0,4,0,4,8,12,4,4,0,8,13,21,19,20,9,8,0,0,0,3,12,13,7,0,3,12,11,16,16,12,12,12,11,15,27,35,39,39,32,28,31,35,35,33,12,16,16,7,12,4,4,4,4,8,7,7,7,12,16,15,15,15,19,25,12,13,9,9,4,7,12,12,16,12,3,4,12,11,12,12,16,12,8,12,4,3,8,8,4,0,12,15,12,0,0,4,12,7,8,8,3,8,8,7,12,4,4,4,4,7,15,20,12,12,28,31,27,32,36,36,44,43,43,36,28,20,15,16,12,4,12,12,20,31,33,35,61,43,23,28,24,12,4,8,16,20,23,28,16,12,11,16,20,16,8,0,0,8,12,4,12,16,12,7,8,12,7,4,12,7,8,8,4,4,4,4,4,7,12,7,12,4,4,4,8,8,12,12,0,0,0,0,0,8,16,20,20,12,12,15,12,0,0,4,12,8,8,8,8,25,20,16,7,0,4,16,20,16,4,12,8,12,4,12,20,29,14,20,21,34,28,4,23,20,8,12,20,20,16,11,9,8,8,8,7,12,3,16,20,24,27,35,35,35,48,47,39,31,17,15,16,12,20,20,21,40,39,21,16,28,31,52,56,35,43,51,68,75,66,59,43,44,39,31,31,-1,-1,-1,-1,-1,-1,-1,-1,-1,-1,-1,-1,-1,-1,-1,-1,-1,-1,-1,-1,-1,-1,-1,-1,-1,-1,-1,-1,-1,-1,-1,-1,-1,-1,-1,-1,-1,-1,-1,-1,-1,-1,-1,-1,-1,-1,-1,-1,-1,-1,-1,-1,-1
-1,-1,-1,-1,-1,-1,-1,-1,-1,-1,-1,-1,-1,-1,-1,-1,-1,-1,-1,-1,-1,-1,-1,-1,-1,-1,-1,-1,-1,-1,-1,-1,-1,-1,-1,-1,17,20,25,12,12,16,36,52,52,47,40,28,16,12,8,4,12,8,0,0,0,0,0,0,0,8,12,4,4,4,8,8,4,4,8,8,12,16,28,28,16,11,29,36,31,31,25,8,9,32,48,47,47,47,43,35,43,47,47,43,39,40,36,32,27,27,27,40,39,48,39,31,35,40,27,20,7,13,17,24,24,20,20,16,12,3,16,32,31,24,16,20,19,20,16,11,12,12,15,15,16,12,16,20,11,20,32,31,27,32,28,16,20,32,31,23,12,21,41,39,43,36,16,12,12,16,15,20,28,23,15,11,16,33,31,23,20,16,8,4,4,8,12,9,8,8,4,4,8,12,7,9,8,0,0,0,4,12,7,0,4,0,0,0,0,0,0,0,12,12,8,12,3,8,8,7,12,4,0,0,4,8,9,8,12,12,0,4,8,7,3,3,16,16,8,0,0,4,4,4,4,3,7,9,8,12,12,16,7,12,8,12,15,28,27,40,47,43,31,28,27,39,43,32,12,7,12,12,12,4,4,12,8,4,8,7,7,11,20,20,20,20,20,20,12,8,8,8,7,12,4,12,12,8,8,4,8,12,12,16,16,12,3,0,4,8,12,12,8,0,12,16,12,4,0,4,12,8,8,12,3,4,8,7,3,4,4,4,8,7,16,20,16,16,28,31,28,28,31,31,43,47,43,31,28,15,15,12,12,8,8,12,20,31,29,29,56,48,23,24,16,4,4,7,20,27,31,28,16,16,16,12,12,8,8,4,0,4,8,8,12,16,16,12,4,8,12,8,12,8,4,4,4,4,4,4,12,7,12,16,16,9,8,4,4,12,16,12,0,0,0,0,4,12,7,20,20,12,11,12,3,4,4,4,4,8,12,16,16,16,8,13,13,8,8,16,19,20,8,12,15,15,12,0,12,12,0,12,12,21,20,4,17,12,9,16,24,24,16,12,9,12,0,4,12,16,16,20,20,20,27,31,31,43,47,47,43,27,9,20,16,7,20,20,21,35,25,12,20,28,31,48,43,40,47,54,70,79,67,59,43,35,31,31,31,-1,-1,-1,-1,-1,-1,-1,-1,-1,-1,-1,-1,-1,-1,-1,-1,-1,-1,-1,-1,-1,-1,-1,-1,-1,-1,-1,-1,-1,-1,-1,-1,-1,-1,-1,-1,-1,-1,-1,-1,-1,-1,-1,-1,-1,-1,-1,-1,-1,-1,-1,-1,-1
-1,-1,-1,-1,-1,-1,-1,-1,-1,-1,-1,-1,-1,-1,-1,-1,-1,-1,-1,-1,-1,-1,-1,-1,-1,-1,-1,-1,-1,-1,-1,-1,-1,-1,-1,-1,16,16,15,20,15,20,32,52,56,52,35,23,16,12,9,8,8,4,0,4,4,4,4,4,4,3,3,4,4,4,0,8,9,3,4,4,3,12,24,28,19,28,31,31,28,20,13,9,28,43,47,47,43,43,39,39,47,51,47,48,35,35,31,31,27,32,31,40,43,47,43,31,35,35,36,25,16,18,16,20,20,20,16,16,12,4,16,32,31,23,20,24,23,20,15,12,12,16,15,15,15,16,20,20,20,28,27,31,32,27,32,25,11,20,28,23,15,28,35,35,44,36,15,16,15,20,15,23,31,32,20,20,12,24,31,28,16,12,4,0,7,12,4,0,4,4,4,8,9,8,4,0,4,0,0,0,0,4,8,8,4,0,0,0,0,0,0,4,12,8,12,12,8,12,4,12,12,0,0,0,8,12,12,12,12,12,0,3,12,12,12,4,12,7,12,7,4,8,8,8,8,8,12,13,7,12,7,12,8,4,4,17,20,41,40,35,43,39,31,28,32,43,39,28,12,4,12,16,16,12,3,12,8,0,4,8,7,12,16,15,15,15,16,12,12,11,12,7,16,16,4,8,12,3,8,8,3,12,16,15,12,8,8,8,8,12,16,15,12,4,12,7,8,8,4,8,8,4,8,12,4,0,4,8,8,4,0,0,4,12,16,15,15,15,28,31,27,32,36,36,44,47,43,31,23,20,16,8,8,12,3,7,16,23,21,24,39,45,20,16,4,16,7,7,23,39,48,32,20,16,12,7,12,3,12,8,4,4,3,3,4,12,15,12,4,8,8,8,12,8,0,0,0,0,0,0,8,12,7,16,20,17,12,3,0,12,15,12,4,0,4,0,8,12,4,16,16,11,16,12,8,0,0,0,8,12,20,23,20,16,13,20,8,7,8,20,32,33,21,30,32,23,12,8,9,9,9,9,13,16,12,8,8,8,4,11,20,20,16,12,12,11,12,4,17,20,24,23,20,20,32,36,40,56,50,47,43,28,13,20,11,8,20,29,30,36,12,16,20,23,32,44,39,35,52,63,83,87,67,59,44,31,32,23,31,-1,-1,-1,-1,-1,-1,-1,-1,-1,-1,-1,-1,-1,-1,-1,-1,-1,-1,-1,-1,-1,-1,-1,-1,-1,-1,-1,-1,-1,-1,-1,-1,-1,-1,-1,-1,-1,-1,-1,-1,-1,-1,-1,-1,-1,-1,-1,-1,-1,-1,-1,-1,-1
-1,-1,-1,-1,-1,-1,-1,-1,-1,-1,-1,-1,-1,-1,-1,-1,-1,-1,-1,-1,-1,-1,-1,-1,-1,-1,-1,-1,-1,-1,-1,-1,-1,-1,-1,-1,29,17,20,28,23,28,36,60,55,39,28,16,12,7,4,8,4,0,0,8,12,4,4,4,4,8,8,4,8,4,8,9,4,9,4,4,8,8,16,28,36,43,40,28,16,12,4,18,58,59,55,48,39,43,39,39,51,51,43,39,35,35,36,36,31,31,35,43,39,43,39,31,31,35,36,24,11,9,12,16,16,11,12,12,12,8,11,23,32,27,23,20,28,23,16,12,12,15,20,20,20,20,24,23,23,31,32,32,23,28,27,29,20,24,19,19,28,40,44,36,35,32,15,15,23,28,20,27,31,27,23,23,20,20,23,24,16,9,8,9,16,12,0,4,4,4,4,3,0,3,4,4,4,4,4,0,0,0,4,12,8,0,0,0,0,4,4,12,8,4,12,7,12,8,0,8,12,4,0,0,12,12,8,12,12,12,4,4,12,11,12,4,4,4,17,11,8,3,4,4,7,12,4,4,12,7,8,8,4,0,4,16,20,41,39,43,39,31,31,28,32,44,40,32,16,4,16,20,20,16,11,12,4,0,0,4,8,7,16,16,16,15,12,12,16,16,12,12,20,16,8,3,8,8,3,12,8,12,16,16,16,3,4,3,3,3,20,23,16,8,12,4,3,3,4,3,3,4,8,8,4,4,0,4,8,8,4,4,0,12,16,16,20,20,28,31,31,31,35,35,35,48,43,36,23,24,16,4,4,4,8,7,16,20,4,20,27,28,16,9,16,19,25,17,41,55,56,36,24,16,7,7,7,8,12,12,8,8,12,8,0,12,16,12,8,8,4,4,8,8,4,4,4,4,4,0,4,12,7,16,16,7,0,4,4,12,16,12,8,9,8,0,12,12,0,12,12,16,16,11,12,4,0,0,12,16,23,36,32,21,21,28,12,12,4,20,31,32,17,25,36,27,11,8,4,0,4,8,8,12,12,12,12,4,4,12,16,15,16,9,7,12,8,0,12,15,24,28,19,23,31,35,43,51,51,51,39,20,12,20,12,3,20,20,25,28,13,23,23,23,27,35,35,31,48,72,91,91,75,69,45,27,28,20,27,31,-1,-1,-1,-1,-1,-1,-1,-1,-1,-1,-1,-1,-1,-1,-1,-1,-1,-1,-1,-1,-1,-1,-1,-1,-1,-1,-1,-1,-1,-1,-1,-1,-1,-1,-1,-1,-1,-1,-1,-1,-1,-1,-1,-1,-1,-1,-1,-1,-1,-1,-1,-1
-1,-1,-1,-1,-1,-1,-1,-1,-1,-1,-1,-1,-1,-1,-1,-1,-1,-1,-1,-1,-1,-1,-1,-1,-1,-1,-1,-1,-1,-1,-1,-1,-1,-1,-1,-1,-1,13,20,32,36,36,44,63,69,37,16,3,8,7,4,4,0,0,0,12,12,0,0,0,0,4,4,4,4,4,4,4,4,4,8,4,8,3,16,28,43,60,53,24,12,0,0,25,64,71,51,39,48,47,39,39,47,51,43,39,44,35,31,31,31,35,43,43,44,35,35,27,28,31,27,23,20,12,12,3,12,8,3,12,11,12,16,32,31,31,28,15,23,28,16,12,20,20,24,23,20,15,20,28,31,31,31,31,32,20,20,20,28,23,28,27,28,40,43,36,31,32,20,15,28,27,28,27,31,36,28,23,28,23,29,8,8,9,8,12,15,16,9,4,8,8,8,8,4,8,8,4,4,8,8,4,0,0,4,12,8,0,0,0,0,8,12,7,9,4,8,7,12,4,0,4,8,8,4,0,8,12,9,12,16,12,8,9,11,12,7,8,4,4,12,7,8,8,4,4,12,8,0,0,12,12,4,4,4,4,8,11,20,32,39,43,48,32,23,28,32,35,36,23,16,7,20,23,20,15,15,12,4,4,4,4,3,7,16,16,16,16,7,12,16,12,12,20,23,20,7,8,3,12,8,8,12,7,16,16,11,8,4,8,12,12,20,28,20,8,9,8,8,8,4,8,8,4,4,8,9,8,4,0,4,4,12,8,0,8,12,16,23,23,27,35,35,36,40,40,36,39,48,36,27,20,8,0,0,0,4,8,11,16,12,15,20,15,7,8,23,32,25,18,45,64,59,49,24,16,12,7,12,16,20,11,8,4,8,12,4,12,12,4,4,4,0,0,4,4,4,4,9,12,3,0,0,12,12,12,12,12,8,8,12,3,12,7,12,4,12,4,12,8,4,12,7,12,16,12,8,8,4,4,12,11,19,36,41,31,29,19,9,12,4,16,28,24,12,17,36,36,16,4,4,4,8,8,3,12,8,12,16,9,4,7,12,11,12,4,7,8,4,4,12,16,23,28,19,32,44,43,47,51,47,47,40,17,20,20,3,8,12,12,16,38,22,27,36,32,31,39,36,32,48,72,87,87,70,64,36,28,20,20,32,36,-1,-1,-1,-1,-1,-1,-1,-1,-1,-1,-1,-1,-1,-1,-1,-1,-1,-1,-1,-1,-1,-1,-1,-1,-1,-1,-1,-1,-1,-1,-1,-1,-1,-1,-1,-1,-1,-1,-1,-1,-1,-1,-1,-1,-1,-1,-1,-1,-1,-1,-1,-1
-1,-1,-1,-1,-1,-1,-1,-1,-1,-1,-1,-1,-1,-1,-1,-1,-1,-1,-1,-1,-1,-1,-1,-1,-1,-1,-1,-1,-1,-1,-1,-1,-1,-1,-1,-1,-1,17,24,37,44,35,43,59,56,24,4,4,4,12,8,0,0,4,4,12,8,0,0,0,0,4,0,4,4,4,4,0,0,0,4,0,3,8,16,19,45,55,52,33,21,9,17,49,77,67,52,39,47,56,48,39,47,51,51,47,39,31,36,35,40,44,47,43,31,31,31,28,19,27,23,23,25,8,9,8,3,4,8,7,16,11,11,23,36,36,32,20,19,20,16,16,19,28,23,23,23,19,20,28,31,31,31,31,28,15,11,29,32,23,36,40,32,32,39,36,27,31,28,20,27,31,31,31,40,35,28,27,27,28,20,3,13,3,4,8,16,16,7,8,4,4,4,4,4,4,4,0,0,4,12,8,0,4,8,8,4,0,0,0,4,16,16,7,0,4,0,12,12,0,0,0,4,12,8,0,4,8,4,7,12,4,12,13,7,12,7,0,3,0,3,4,4,3,4,4,4,4,4,4,12,8,0,0,0,0,4,16,24,27,35,43,40,28,20,23,31,35,31,27,20,16,20,28,23,15,15,12,8,8,4,4,8,7,20,21,7,16,7,12,12,12,16,24,23,20,12,12,8,12,12,4,4,12,11,16,16,7,8,12,8,12,15,28,25,4,4,3,4,4,0,4,4,4,3,8,9,8,4,4,4,0,8,12,4,4,4,21,23,27,31,35,44,40,35,35,31,39,43,35,31,25,4,0,0,0,0,4,12,8,8,16,20,16,4,12,23,28,20,14,33,56,54,44,24,20,16,16,16,24,28,16,4,0,4,12,8,12,12,0,4,4,4,4,4,0,0,0,3,12,8,0,4,12,7,12,7,12,8,12,12,8,12,12,7,4,7,4,8,3,8,7,7,7,7,8,3,8,8,8,12,8,16,28,23,12,12,12,4,7,8,7,20,16,3,4,24,24,12,4,8,12,4,4,3,12,8,12,16,12,3,7,8,8,12,0,12,9,4,8,7,16,28,23,23,31,43,51,55,55,51,43,32,9,20,20,8,8,21,20,12,19,8,24,27,31,39,48,36,31,39,63,79,78,70,56,35,23,20,24,27,35,-1,-1,-1,-1,-1,-1,-1,-1,-1,-1,-1,-1,-1,-1,-1,-1,-1,-1,-1,-1,-1,-1,-1,-1,-1,-1,-1,-1,-1,-1,-1,-1,-1,-1,-1,-1,-1,-1,-1,-1,-1,-1,-1,-1,-1,-1,-1,-1,-1,-1,-1,-1
-1,-1,-1,-1,-1,-1,-1,-1,-1,-1,-1,-1,-1,-1,-1,-1,-1,-1,-1,-1,-1,-1,-1,-1,-1,-1,-1,-1,-1,-1,-1,-1,-1,-1,-1,-1,-1,24,28,27,31,31,39,47,45,20,9,8,4,12,12,0,4,8,8,4,4,0,0,0,4,8,4,4,8,8,8,4,4,4,4,4,8,7,20,23,32,48,39,23,12,16,37,55,67,63,43,40,52,47,47,47,47,51,59,55,44,32,40,39,39,43,39,44,32,27,27,20,24,23,20,20,11,12,12,12,7,4,7,7,11,16,12,28,31,31,27,23,24,20,20,20,20,28,27,27,27,27,28,19,27,31,31,31,28,20,16,23,32,23,31,39,40,27,31,27,28,31,27,28,31,31,31,35,44,36,27,36,31,23,12,3,0,4,4,4,12,16,15,12,0,0,0,0,0,0,0,0,0,4,12,8,0,8,12,4,0,0,0,4,8,11,20,17,9,12,3,8,12,4,0,0,4,12,8,4,4,3,4,7,8,4,4,4,3,8,8,8,12,14,24,21,4,12,8,0,4,8,8,4,4,4,0,0,0,0,0,12,20,32,40,39,32,24,24,37,44,35,31,31,28,20,20,23,32,20,16,16,16,3,4,4,3,12,16,12,12,7,12,7,16,11,11,20,20,15,16,16,16,7,12,4,4,3,16,20,11,8,4,0,0,12,15,23,25,4,12,8,0,4,4,4,4,8,8,3,4,8,8,8,8,4,3,12,8,0,0,16,23,27,36,35,39,39,35,31,31,35,39,39,35,25,0,0,0,0,0,0,4,4,3,16,16,8,0,12,20,15,7,0,16,45,47,36,24,28,19,15,15,28,28,12,4,4,0,12,12,12,12,4,8,8,4,8,12,4,0,0,4,8,8,3,8,8,7,12,7,12,4,8,12,12,16,16,17,12,7,0,3,8,7,7,7,7,4,9,3,4,12,7,12,8,4,21,16,17,4,4,8,7,3,12,7,4,12,4,12,8,8,8,12,8,0,0,4,12,8,12,12,12,12,12,8,8,12,4,0,4,4,3,7,16,20,15,28,43,47,55,59,59,51,31,24,13,24,24,16,7,19,33,22,32,24,8,19,40,51,56,40,35,47,67,70,74,71,47,40,28,19,24,37,49,-1,-1,-1,-1,-1,-1,-1,-1,-1,-1,-1,-1,-1,-1,-1,-1,-1,-1,-1,-1,-1,-1,-1,-1,-1,-1,-1,-1,-1,-1,-1,-1,-1,-1,-1,-1,-1,-1,-1,-1,-1,-1,-1,-1,-1,-1,-1,-1,-1,-1,-1,-1
-1,-1,-1,-1,-1,-1,-1,-1,-1,-1,-1,-1,-1,-1,-1,-1,-1,-1,-1,-1,-1,-1,-1,-1,-1,-1,-1,-1,-1,-1,-1,-1,-1,-1,-1,-1,13,28,31,31,32,23,36,40,36,20,12,12,8,8,12,4,8,8,3,4,4,4,4,4,8,8,4,0,3,4,3,8,8,8,8,4,3,8,20,23,31,35,31,20,29,32,48,67,71,60,35,39,43,47,56,55,51,55,63,60,40,31,43,43,39,43,35,31,28,23,28,20,19,19,20,20,20,20,24,16,8,0,7,12,12,8,16,32,36,31,27,27,19,20,28,23,20,28,27,40,35,31,27,28,23,28,36,27,24,19,20,28,31,27,27,36,35,40,37,32,32,27,31,31,35,31,31,43,44,31,35,39,44,33,17,3,3,0,7,9,9,20,20,16,4,0,0,0,4,0,3,0,4,3,12,8,0,12,12,0,4,4,4,8,8,12,16,12,8,12,4,4,12,8,0,0,8,12,8,8,8,8,8,8,4,0,0,4,8,4,8,3,12,9,23,25,4,12,8,4,8,8,4,0,0,0,0,0,0,0,0,12,15,28,35,35,23,24,23,27,31,35,31,31,28,15,15,28,31,28,16,24,20,8,12,4,12,11,12,7,8,7,12,7,11,16,16,16,16,15,15,15,16,12,4,0,8,12,12,15,12,4,4,8,8,7,16,20,16,0,12,12,4,8,8,4,4,3,12,7,4,12,8,4,4,8,8,12,12,4,4,12,20,28,36,43,39,39,39,35,31,31,35,43,40,25,4,4,4,4,4,4,4,4,8,11,16,4,0,12,15,12,8,4,12,27,35,27,28,23,28,23,15,23,25,3,8,8,4,12,8,8,9,8,3,8,8,12,11,12,4,0,0,4,12,11,12,3,12,8,12,12,0,4,12,16,15,16,12,12,8,0,8,12,7,8,7,12,4,0,4,4,12,7,12,8,4,12,8,4,4,12,7,12,8,4,4,4,12,8,0,4,4,4,4,4,0,0,0,12,12,12,12,12,12,12,8,12,12,8,8,8,8,12,12,25,15,21,37,57,55,59,63,63,56,32,16,12,20,20,16,16,28,28,18,40,32,12,25,44,55,51,39,44,55,62,66,75,67,47,40,28,27,28,32,43,-1,-1,-1,-1,-1,-1,-1,-1,-1,-1,-1,-1,-1,-1,-1,-1,-1,-1,-1,-1,-1,-1,-1,-1,-1,-1,-1,-1,-1,-1,-1,-1,-1,-1,-1,-1,-1,-1,-1,-1,-1,-1,-1,-1,-1,-1,-1,-1,-1,-1,-1,-1
-1,-1,-1,-1,-1,-1,-1,-1,-1,-1,-1,-1,-1,-1,-1,-1,-1,-1,-1,-1,-1,-1,-1,-1,-1,-1,-1,-1,-1,-1,-1,-1,-1,-1,-1,-1,18,33,32,27,24,16,20,37,36,19,8,12,12,8,8,9,8,4,8,12,8,4,8,4,3,3,4,4,8,4,8,3,0,4,4,8,8,3,20,23,36,40,32,19,41,39,52,63,67,56,39,39,39,47,50,54,55,59,59,47,39,43,43,43,35,35,36,27,28,20,20,20,28,23,15,20,28,23,19,25,8,4,12,20,12,8,25,32,31,28,28,31,28,20,23,28,23,27,27,40,43,35,31,31,28,20,36,36,16,24,27,36,40,32,28,32,40,36,37,41,36,32,36,39,40,35,35,35,40,31,47,56,45,20,16,9,7,13,20,4,13,12,16,12,8,4,0,4,3,9,7,9,3,8,12,3,0,12,12,0,8,12,4,4,4,8,12,12,9,12,0,4,12,8,0,0,12,9,12,4,4,4,4,4,0,0,4,8,8,12,12,8,12,12,15,12,0,4,4,12,7,0,4,0,0,0,0,0,0,0,0,12,15,28,31,31,28,19,28,27,27,36,36,23,28,20,15,28,31,27,20,28,20,12,8,0,12,12,8,8,3,12,11,12,16,11,11,16,12,16,15,15,15,12,0,0,12,16,16,20,17,4,4,3,7,7,16,16,8,0,8,12,8,8,3,4,12,8,12,16,12,4,3,4,4,3,12,16,16,12,12,4,16,19,40,47,43,35,39,40,35,35,35,39,36,16,4,4,4,12,8,3,12,9,3,12,8,0,0,12,15,12,8,9,20,28,23,28,31,28,23,28,20,19,12,12,7,4,4,4,4,4,4,7,8,4,3,0,12,16,12,4,4,4,12,16,12,8,12,3,12,8,0,4,16,16,11,12,3,0,4,0,12,16,12,4,12,12,4,4,4,8,7,7,8,3,8,8,4,0,0,12,12,12,12,0,0,0,4,4,8,8,4,0,0,4,0,4,4,12,7,12,7,12,8,8,12,7,16,16,8,0,4,12,11,20,20,11,23,47,54,54,71,67,44,25,4,12,11,16,20,20,23,28,18,31,32,16,26,53,60,51,43,43,63,67,71,70,63,47,36,32,35,31,40,43,-1,-1,-1,-1,-1,-1,-1,-1,-1,-1,-1,-1,-1,-1,-1,-1,-1,-1,-1,-1,-1,-1,-1,-1,-1,-1,-1,-1,-1,-1,-1,-1,-1,-1,-1,-1,-1,-1,-1,-1,-1,-1,-1,-1,-1,-1,-1,-1,-1,-1,-1,-1
-1,-1,-1,-1,-1,-1,-1,-1,-1,-1,-1,-1,-1,-1,-1,-1,-1,-1,-1,-1,-1,-1,-1,-1,-1,-1,-1,-1,-1,-1,-1,-1,-1,-1,-1,-1,-1,16,20,20,20,12,12,38,31,25,4,8,12,4,13,13,3,0,12,12,4,0,4,0,8,12,4,4,4,4,12,8,8,4,4,8,4,8,20,23,31,35,31,35,43,43,47,59,67,60,43,35,43,51,59,54,59,58,59,51,47,47,47,39,40,32,27,27,28,20,15,20,28,23,20,28,31,28,20,20,11,9,25,23,15,11,15,27,31,24,25,32,28,23,27,32,36,31,31,40,43,39,39,40,32,20,28,32,12,29,35,40,40,32,23,27,32,31,27,32,32,23,36,39,35,44,40,27,36,45,61,60,49,24,20,16,4,12,20,13,8,4,8,3,8,8,4,3,9,3,3,0,4,8,8,4,4,12,8,0,8,12,4,4,4,3,12,11,9,8,0,8,12,4,0,0,8,9,8,0,0,0,0,0,0,0,3,12,9,12,8,12,12,12,12,0,4,0,0,8,12,12,8,0,0,0,0,0,0,0,0,12,15,23,31,32,27,23,28,27,28,36,28,20,28,23,15,28,31,31,31,28,20,12,4,4,12,8,4,4,8,7,16,11,11,16,16,11,8,12,15,15,15,12,4,4,12,16,15,15,12,4,4,12,7,12,11,12,3,4,3,0,3,4,12,7,12,7,12,11,12,3,8,8,4,12,16,15,15,12,12,8,16,28,44,47,43,31,35,35,44,39,35,40,23,11,8,4,0,8,12,9,12,3,8,12,4,0,0,12,15,16,12,17,32,23,20,28,31,28,15,15,23,28,16,7,12,4,4,4,4,4,8,7,3,4,8,8,12,16,12,0,0,0,4,12,8,12,12,8,12,3,4,8,11,16,8,9,13,3,0,4,8,20,16,0,12,16,12,4,4,3,7,8,3,8,8,4,4,4,4,12,8,12,12,0,0,0,0,0,4,8,8,4,4,8,4,8,8,7,7,8,7,12,4,4,8,8,12,16,12,7,16,16,12,23,28,16,29,56,54,59,67,69,37,13,8,3,3,12,16,23,27,19,9,23,29,21,21,53,50,43,48,52,72,70,67,62,58,56,32,36,43,35,39,43,35,-1,-1,-1,-1,-1,-1,-1,-1,-1,-1,-1,-1,-1,-1,-1,-1,-1,-1,-1,-1,-1,-1,-1,-1,-1,-1,-1,-1,-1,-1,-1,-1,-1,-1,-1,-1,-1,-1,-1,-1,-1,-1,-1,-1,-1,-1,-1,-1,-1,-1,-1
-1,-1,-1,-1,-1,-1,-1,-1,-1,-1,-1,-1,-1,-1,-1,-1,-1,-1,-1,-1,-1,-1,-1,-1,-1,-1,-1,-1,-1,-1,-1,-1,-1,-1,-1,-1,-1,8,3,12,16,15,15,20,20,7,4,3,12,8,4,3,3,4,12,12,0,0,0,4,8,8,4,4,0,0,8,9,8,4,4,4,4,16,23,23,23,31,47,55,52,39,43,64,70,63,43,31,43,55,63,63,54,59,54,55,51,51,51,44,36,32,27,27,28,23,20,24,23,19,32,36,31,23,15,19,25,13,20,28,23,15,20,32,36,23,16,34,32,37,40,35,35,31,31,35,44,47,48,36,32,29,19,32,20,23,31,39,44,37,23,36,36,36,36,32,24,20,27,39,43,43,40,28,36,43,39,48,35,24,23,36,26,12,25,9,4,4,4,0,4,8,8,4,4,4,4,4,8,8,4,4,8,8,3,0,4,4,9,4,9,8,7,16,4,4,0,8,12,4,4,4,4,4,4,4,4,4,0,0,0,0,4,8,4,8,4,12,12,12,12,8,12,4,0,4,0,7,12,4,4,4,4,4,4,4,0,8,16,19,32,27,27,32,23,28,27,31,24,16,28,23,20,28,36,39,40,32,20,12,0,8,12,4,0,0,8,12,16,12,16,11,11,16,4,12,15,15,15,16,12,4,4,12,20,20,16,8,4,12,7,12,7,8,8,8,8,12,8,4,12,11,12,7,8,3,12,12,12,8,4,12,11,16,20,13,7,0,12,28,39,47,48,36,36,35,39,43,35,31,24,12,7,8,4,4,4,4,4,4,7,16,4,4,0,7,16,20,17,25,35,37,12,15,23,28,16,16,28,23,15,7,4,4,4,0,0,0,4,12,8,4,0,4,4,16,8,4,0,4,4,4,4,12,12,12,12,8,8,4,12,16,12,4,0,4,4,8,9,24,25,4,12,15,12,0,4,8,12,3,8,8,4,4,8,8,4,4,4,12,12,0,0,4,4,4,4,4,12,8,8,12,4,4,3,7,7,3,12,8,0,0,0,4,12,20,15,16,23,25,12,28,32,25,24,56,59,59,54,44,20,4,4,8,9,8,16,32,27,23,13,12,12,16,21,53,43,44,47,47,67,75,67,63,54,52,27,44,47,43,35,39,40,-1,-1,-1,-1,-1,-1,-1,-1,-1,-1,-1,-1,-1,-1,-1,-1,-1,-1,-1,-1,-1,-1,-1,-1,-1,-1,-1,-1,-1,-1,-1,-1,-1,-1,-1,-1,-1,-1,-1,-1,-1,-1,-1,-1,-1,-1,-1,-1,-1,-1,-1
-1,-1,-1,-1,-1,-1,-1,-1,-1,-1,-1,-1,-1,-1,-1,-1,-1,-1,-1,-1,-1,-1,-1,-1,-1,-1,-1,-1,-1,-1,-1,-1,-1,-1,-1,-1,-1,8,3,8,17,29,27,25,8,4,8,8,12,12,0,8,12,8,9,8,0,0,0,8,8,9,13,3,0,0,4,0,4,4,8,9,17,29,23,23,20,45,72,67,56,35,39,63,70,67,48,31,43,59,62,63,59,54,54,50,51,55,55,44,32,31,27,27,27,27,28,24,19,28,40,43,32,15,11,16,17,17,20,28,23,15,24,31,35,32,25,11,23,28,32,43,39,31,31,27,36,51,61,36,19,15,32,31,27,27,27,36,35,36,27,40,49,44,40,32,11,21,37,49,43,43,48,32,32,52,48,36,32,29,46,43,33,16,12,9,8,4,4,4,4,3,4,4,4,4,4,4,4,3,4,8,7,3,12,4,12,4,12,4,13,4,17,11,8,4,4,3,4,4,4,4,4,8,4,8,8,8,4,0,0,4,0,4,0,4,4,12,8,8,12,12,11,12,4,4,8,12,12,8,3,13,9,9,13,3,0,4,16,24,27,32,27,31,28,23,31,32,20,16,19,23,24,19,40,39,35,27,24,17,4,17,7,4,4,4,8,12,12,12,12,12,16,7,4,12,16,15,20,20,7,4,4,17,28,23,15,12,8,8,8,12,9,4,3,0,4,12,8,8,12,16,11,8,4,0,8,12,7,8,8,8,3,16,16,4,12,12,16,28,35,43,39,31,31,39,43,39,40,36,29,12,7,12,8,0,0,4,8,8,12,11,12,8,9,3,7,20,26,33,31,24,12,12,20,15,11,16,19,23,24,17,4,12,7,4,4,4,0,8,12,8,8,4,4,7,9,8,4,8,8,4,4,12,12,12,16,12,7,9,9,15,16,9,8,4,8,12,4,20,24,16,12,15,9,9,8,12,12,8,8,4,4,8,8,4,0,0,4,12,8,0,4,12,8,8,12,4,12,12,12,12,0,0,8,12,7,12,4,4,0,0,3,13,12,25,19,15,23,28,20,27,31,28,36,60,58,55,48,25,4,4,4,4,8,12,8,23,32,23,24,12,4,12,21,53,44,32,44,51,63,67,67,54,56,39,32,43,47,47,44,35,35,-1,-1,-1,-1,-1,-1,-1,-1,-1,-1,-1,-1,-1,-1,-1,-1,-1,-1,-1,-1,-1,-1,-1,-1,-1,-1,-1,-1,-1,-1,-1,-1,-1,-1,-1,-1,-1,-1,-1,-1,-1,-1,-1,-1,-1,-1,-1,-1,-1,-1,-1
-1,-1,-1,-1,-1,-1,-1,-1,-1,-1,-1,-1,-1,-1,-1,-1,-1,-1,-1,-1,-1,-1,-1,-1,-1,-1,-1,-1,-1,-1,-1,-1,-1,-1,-1,-1,-1,12,16,17,12,20,24,17,4,12,7,12,11,12,4,8,12,4,4,4,0,4,4,12,8,4,4,4,0,0,0,0,4,8,8,8,16,23,28,20,15,57,75,67,43,35,43,63,75,72,56,40,43,59,67,67,63,55,50,60,56,51,51,44,31,36,32,36,36,19,28,23,28,35,43,43,41,26,13,8,4,12,15,20,23,20,29,40,40,32,20,16,28,28,28,48,47,36,36,23,29,62,51,31,20,20,41,39,35,36,27,32,28,32,36,40,48,43,43,45,20,20,23,36,35,39,47,48,32,49,56,45,28,20,37,36,27,23,16,8,4,8,4,4,12,8,0,0,0,0,0,0,4,8,8,4,7,12,7,13,7,0,12,9,12,8,9,7,4,4,8,8,4,0,0,0,0,4,4,4,4,8,8,4,4,8,4,8,4,4,12,7,0,3,4,3,12,8,8,12,17,11,11,17,4,3,4,4,4,4,0,0,8,20,27,23,28,31,27,32,36,23,20,16,24,27,19,28,40,44,36,32,20,12,4,12,8,4,8,8,12,8,8,12,7,12,7,12,4,3,16,20,24,24,17,4,3,12,24,28,20,16,12,4,0,0,0,0,8,12,7,12,4,8,16,20,21,8,0,0,4,8,8,4,4,0,4,12,7,0,4,12,15,28,31,35,31,31,35,48,43,39,35,36,23,16,12,12,12,4,4,8,7,3,3,16,11,8,8,12,9,17,8,20,24,12,11,12,7,12,16,20,24,23,20,12,0,12,16,12,12,8,0,4,4,3,3,4,12,7,0,4,0,4,4,8,8,12,8,12,20,16,8,12,9,15,15,12,12,8,12,16,9,16,29,15,16,20,9,9,12,16,11,8,4,0,8,12,3,0,4,0,8,12,4,4,12,16,12,16,16,8,8,12,12,12,0,0,12,12,12,12,0,4,4,4,4,12,12,16,15,16,20,28,27,40,35,31,43,55,60,52,42,13,8,8,12,4,3,12,8,25,23,28,35,40,20,4,25,44,41,16,32,51,55,59,62,59,47,40,32,48,51,51,39,36,36,31,-1,-1,-1,-1,-1,-1,-1,-1,-1,-1,-1,-1,-1,-1,-1,-1,-1,-1,-1,-1,-1,-1,-1,-1,-1,-1,-1,-1,-1,-1,-1,-1,-1,-1,-1,-1,-1,-1,-1,-1,-1,-1,-1,-1,-1,-1,-1,-1,-1,-1
-1,-1,-1,-1,-1,-1,-1,-1,-1,-1,-1,-1,-1,-1,-1,-1,-1,-1,-1,-1,-1,-1,-1,-1,-1,-1,-1,-1,-1,-1,-1,-1,-1,-1,-1,-1,-1,12,7,16,25,21,12,0,0,12,12,12,7,12,8,4,4,12,8,0,0,8,13,4,8,0,0,0,0,0,0,0,3,12,13,12,25,23,19,20,24,72,88,65,35,39,43,60,71,67,51,47,47,63,75,70,63,56,47,55,55,51,47,43,35,35,31,44,40,15,28,27,40,43,44,32,20,17,9,8,4,12,15,15,20,15,28,31,31,31,28,20,32,27,37,52,47,35,39,37,16,41,39,31,23,24,45,47,39,39,36,20,16,33,36,32,44,43,52,48,27,24,23,32,27,35,60,58,49,32,43,43,44,32,27,28,24,27,29,17,13,7,0,4,8,13,4,9,4,4,4,4,8,8,4,0,8,12,7,13,12,4,16,14,16,7,0,4,0,0,4,8,8,4,0,0,0,0,3,9,3,4,4,4,4,4,4,8,8,8,20,21,13,3,0,3,12,8,7,12,12,7,8,8,4,3,12,9,4,4,4,4,9,20,23,23,23,27,27,31,36,32,20,16,24,31,28,27,35,31,31,28,12,4,4,4,4,12,7,4,4,4,4,12,7,8,8,3,4,8,11,20,20,20,16,12,12,12,16,23,24,20,16,4,12,7,4,4,12,15,15,12,4,0,12,20,16,8,4,0,0,4,4,4,4,12,4,12,8,0,0,12,15,28,31,31,27,32,40,43,47,39,40,36,32,20,12,12,12,8,8,3,7,8,12,11,12,3,12,16,16,12,4,12,12,0,12,12,4,8,11,20,20,20,20,16,4,12,16,12,17,7,4,4,4,12,8,0,12,12,0,0,0,0,0,0,4,0,3,16,24,20,4,7,9,16,15,12,12,12,12,15,13,20,19,16,20,20,3,17,11,11,16,4,0,0,12,12,8,9,8,4,12,12,0,8,16,20,13,16,20,12,3,7,11,17,4,4,8,12,7,12,4,8,12,4,4,12,12,8,12,16,20,37,40,35,39,43,51,60,48,32,12,12,8,12,12,4,12,11,12,17,15,28,56,59,44,25,15,36,34,7,41,52,51,64,63,55,43,31,31,43,47,47,44,31,36,32,-1,-1,-1,-1,-1,-1,-1,-1,-1,-1,-1,-1,-1,-1,-1,-1,-1,-1,-1,-1,-1,-1,-1,-1,-1,-1,-1,-1,-1,-1,-1,-1,-1,-1,-1,-1,-1,-1,-1,-1,-1,-1,-1,-1,-1,-1,-1,-1,-1,-1
-1,-1,-1,-1,-1,-1,-1,-1,-1,-1,-1,-1,-1,-1,-1,-1,-1,-1,-1,-1,-1,-1,-1,-1,-1,-1,-1,-1,-1,-1,-1,-1,-1,-1,-1,-1,-1,3,0,16,15,12,9,3,0,12,16,12,3,8,8,4,4,12,8,0,0,8,8,9,3,0,0,0,0,0,0,0,4,4,7,20,20,24,12,8,41,84,87,56,35,43,43,47,63,67,54,55,55,67,78,80,56,43,47,50,54,55,47,39,39,39,43,39,40,19,32,31,40,48,46,22,0,4,8,12,17,18,20,20,20,16,24,27,32,36,31,23,40,40,31,35,35,44,47,41,16,20,27,31,31,31,35,39,47,48,36,15,11,23,32,23,45,43,52,47,35,24,25,27,41,40,70,67,53,27,40,56,47,32,32,38,20,23,23,12,4,3,9,3,0,8,9,7,4,4,4,4,4,4,0,0,4,8,8,3,0,8,12,4,12,8,0,0,0,0,0,4,8,8,4,0,4,0,3,0,4,0,0,0,0,3,9,4,4,12,11,12,4,0,4,0,4,8,7,3,4,4,3,9,3,4,12,8,0,0,0,8,9,12,24,23,23,23,27,31,31,28,16,12,24,31,31,31,36,32,27,28,12,0,4,12,8,12,12,0,0,0,0,8,12,4,3,8,8,3,12,16,12,16,24,24,16,7,16,19,19,20,21,13,16,16,12,8,16,23,28,17,8,8,17,23,20,7,12,4,4,0,0,0,0,12,12,8,8,4,0,12,15,23,31,32,23,27,35,43,47,43,35,35,27,24,16,12,16,12,3,8,8,4,12,12,8,8,3,20,23,20,16,17,13,3,3,13,9,8,11,16,12,16,20,16,8,8,12,4,12,12,0,0,0,8,12,4,12,12,4,4,4,4,4,8,4,8,8,16,19,16,9,7,0,7,16,17,12,8,12,15,9,15,20,12,21,16,12,16,16,12,8,0,0,4,12,7,12,8,8,8,12,8,4,12,11,12,4,16,20,21,13,8,12,8,8,12,3,12,7,12,8,12,12,8,12,12,12,4,12,16,20,40,39,35,48,47,55,56,36,21,12,12,4,16,16,8,12,12,12,9,16,42,78,75,60,32,20,20,16,20,40,48,39,55,63,50,39,27,40,47,47,47,40,32,31,23,-1,-1,-1,-1,-1,-1,-1,-1,-1,-1,-1,-1,-1,-1,-1,-1,-1,-1,-1,-1,-1,-1,-1,-1,-1,-1,-1,-1,-1,-1,-1,-1,-1,-1,-1,-1,-1,-1,-1,-1,-1,-1,-1,-1,-1,-1,-1,-1,-1,-1
-1,-1,-1,-1,-1,-1,-1,-1,-1,-1,-1,-1,-1,-1,-1,-1,-1,-1,-1,-1,-1,-1,-1,-1,-1,-1,-1,-1,-1,-1,-1,-1,-1,-1,-1,-1,-1,12,3,8,12,3,0,4,4,12,16,12,8,8,13,8,8,8,4,0,0,8,8,3,4,0,0,0,0,0,0,0,0,0,8,15,23,29,17,9,67,92,83,56,39,43,47,51,68,75,63,51,63,80,78,77,44,43,51,55,54,51,43,43,43,47,47,43,52,31,24,27,36,36,16,4,4,4,4,4,8,13,17,20,20,12,25,33,32,31,35,31,44,43,39,36,23,43,51,41,16,12,23,31,35,39,44,35,43,47,44,29,11,23,28,23,35,43,39,43,40,25,25,45,48,36,57,54,39,31,39,47,48,32,32,23,20,24,24,16,8,8,3,4,8,16,14,12,8,4,4,4,0,0,0,0,0,4,4,8,8,3,3,4,4,4,0,0,0,0,0,0,4,12,8,0,8,9,8,0,0,0,0,0,0,4,3,9,3,4,8,12,8,8,8,8,4,7,12,8,0,8,12,4,8,9,17,8,4,4,4,8,12,8,16,20,20,20,32,36,31,24,12,12,28,31,31,31,31,28,28,28,12,4,8,16,16,7,12,4,4,0,0,4,4,4,8,7,7,8,4,12,12,12,23,28,16,12,15,19,29,20,8,4,12,15,12,4,25,31,28,12,4,7,17,23,16,12,12,8,12,4,4,4,4,12,8,4,8,8,4,8,16,20,27,32,28,27,35,43,47,43,39,40,32,20,15,15,15,16,12,4,4,0,12,12,4,4,12,20,28,24,12,4,4,8,8,3,4,12,16,12,12,16,20,15,8,4,4,4,7,12,4,4,4,4,8,8,12,12,8,12,8,8,8,8,4,4,3,20,24,16,12,12,0,4,16,12,4,8,12,11,9,16,15,15,16,12,16,20,16,7,4,4,4,12,7,8,8,4,0,4,4,4,8,8,4,0,0,8,12,3,4,4,4,8,17,16,7,12,8,8,12,12,12,12,11,16,17,8,12,20,28,44,43,35,43,47,47,44,25,9,16,17,17,20,16,7,12,8,8,18,32,44,64,67,52,27,25,8,20,31,39,44,35,60,58,55,44,23,31,39,47,47,31,27,27,20,-1,-1,-1,-1,-1,-1,-1,-1,-1,-1,-1,-1,-1,-1,-1,-1,-1,-1,-1,-1,-1,-1,-1,-1,-1,-1,-1,-1,-1,-1,-1,-1,-1,-1,-1,-1,-1,-1,-1,-1,-1,-1,-1,-1,-1,-1,-1,-1,-1,-1
-1,-1,-1,-1,-1,-1,-1,-1,-1,-1,-1,-1,-1,-1,-1,-1,-1,-1,-1,-1,-1,-1,-1,-1,-1,-1,-1,-1,-1,-1,-1,-1,-1,-1,-1,-1,-1,4,3,0,4,0,0,0,8,12,16,7,12,8,8,12,3,3,4,4,4,8,8,4,0,4,0,4,0,0,0,0,0,0,8,25,23,20,16,24,70,79,70,56,43,43,47,50,67,71,64,51,67,78,76,47,44,51,55,54,54,51,47,43,47,51,51,59,63,63,21,16,23,25,13,3,0,0,4,8,9,8,4,12,11,12,7,20,19,32,40,40,39,52,53,46,28,43,56,37,16,7,20,36,39,47,39,31,40,47,48,37,20,19,27,31,35,47,53,40,36,19,32,43,56,49,40,48,31,31,43,43,40,36,36,23,24,16,20,20,24,20,4,0,12,12,0,3,4,4,8,8,4,4,0,0,0,0,0,8,8,13,3,0,0,0,0,0,0,0,0,0,0,8,12,4,12,9,12,0,0,0,0,0,0,0,4,0,4,0,0,4,12,7,4,4,9,12,12,12,4,7,17,4,4,13,9,9,4,8,12,9,12,4,16,16,16,15,28,31,28,16,12,16,28,31,31,31,31,28,28,24,12,7,16,20,11,8,3,8,8,4,0,0,0,0,4,8,7,3,4,12,7,12,20,20,16,16,15,20,20,16,8,0,12,15,12,0,25,31,28,16,9,8,12,15,12,12,7,12,8,4,12,8,8,12,4,0,4,12,8,4,16,20,28,23,28,31,39,43,47,43,39,35,28,20,28,23,15,15,12,0,0,0,8,12,4,4,12,15,23,25,3,0,4,3,12,12,14,21,20,7,17,20,24,20,3,4,4,8,8,4,4,8,8,4,3,12,11,12,12,12,0,4,8,4,9,4,8,20,20,8,8,12,4,0,12,16,9,12,12,8,4,16,20,28,20,16,20,16,11,12,4,4,0,8,12,4,4,4,16,16,4,12,4,0,8,12,4,0,0,0,0,0,4,8,7,16,16,7,0,4,12,16,16,12,12,12,12,16,15,23,31,43,43,39,43,39,44,29,3,4,4,0,12,16,12,7,8,4,4,29,44,47,55,60,45,19,15,8,29,43,39,35,44,55,59,51,44,28,27,35,52,52,36,32,23,-1,-1,-1,-1,-1,-1,-1,-1,-1,-1,-1,-1,-1,-1,-1,-1,-1,-1,-1,-1,-1,-1,-1,-1,-1,-1,-1,-1,-1,-1,-1,-1,-1,-1,-1,-1,-1,-1,-1,-1,-1,-1,-1,-1,-1,-1,-1,-1,-1,-1,-1
-1,-1,-1,-1,-1,-1,-1,-1,-1,-1,-1,-1,-1,-1,-1,-1,-1,-1,-1,-1,-1,-1,-1,-1,-1,-1,-1,-1,-1,-1,-1,-1,-1,-1,-1,-1,-1,4,8,8,4,0,0,4,12,11,16,17,4,8,12,8,8,12,4,4,4,4,4,4,4,8,4,8,4,0,0,0,0,4,8,11,20,19,32,48,59,68,58,60,43,47,51,68,70,63,51,60,75,79,69,40,43,55,59,59,54,47,43,43,56,54,63,71,64,33,13,12,21,13,7,4,4,4,8,8,4,4,4,4,3,4,17,16,16,28,31,31,31,35,35,31,27,39,52,32,20,12,20,36,47,56,53,37,27,39,48,35,23,23,31,35,35,43,39,35,27,41,43,43,47,43,39,40,23,41,43,44,39,48,40,32,15,4,26,32,27,25,4,4,8,8,4,0,0,0,4,4,8,8,4,4,4,4,4,8,12,4,4,0,0,0,0,4,4,4,4,0,0,4,4,4,4,12,12,0,0,0,0,0,0,0,0,0,0,0,0,0,12,12,4,4,8,8,3,4,4,17,7,12,8,4,4,4,8,9,8,0,4,4,8,17,12,20,23,32,24,12,12,16,28,31,31,31,31,32,23,25,12,15,16,16,16,4,8,12,7,12,4,4,0,0,0,4,8,8,4,3,7,8,7,16,20,20,15,15,15,15,12,4,12,16,12,0,24,31,28,15,12,0,3,12,11,12,7,7,3,12,11,12,7,12,4,0,0,8,12,4,7,16,20,19,28,36,48,43,43,48,35,31,28,23,31,32,20,16,12,4,4,4,0,0,4,12,11,16,20,16,8,4,8,4,4,0,4,12,16,12,12,16,15,16,8,8,4,4,3,4,8,7,3,8,8,7,12,8,18,16,8,8,8,12,8,8,18,28,15,8,8,12,12,4,12,15,9,12,7,8,8,15,20,23,28,20,20,17,8,3,12,8,4,4,3,4,4,12,19,28,18,20,16,8,12,16,12,8,8,4,0,4,8,7,7,11,20,17,8,8,12,16,15,12,12,12,12,24,28,32,39,43,48,39,43,35,27,12,4,4,8,8,8,16,12,12,13,7,16,41,47,47,47,48,32,20,20,16,32,43,48,36,39,50,50,47,39,28,28,31,48,43,36,27,23,-1,-1,-1,-1,-1,-1,-1,-1,-1,-1,-1,-1,-1,-1,-1,-1,-1,-1,-1,-1,-1,-1,-1,-1,-1,-1,-1,-1,-1,-1,-1,-1,-1,-1,-1,-1,-1,-1,-1,-1,-1,-1,-1,-1,-1,-1,-1,-1,-1,-1,-1
-1,-1,-1,-1,-1,-1,-1,-1,-1,-1,-1,-1,-1,-1,-1,-1,-1,-1,-1,-1,-1,-1,-1,-1,-1,-1,-1,-1,-1,-1,-1,-1,-1,-1,-1,-1,-1,0,4,12,8,0,0,3,12,11,15,12,0,4,12,8,8,12,4,0,0,4,4,8,8,4,4,8,8,4,0,0,0,3,12,8,25,31,39,50,63,55,59,59,47,43,51,71,75,60,51,59,70,71,47,44,51,59,63,62,59,47,43,48,60,63,70,76,54,13,4,4,4,8,13,9,9,9,8,4,4,4,4,4,4,4,12,7,16,28,23,24,37,36,36,36,32,49,40,32,23,20,24,41,52,47,39,27,37,44,43,40,27,31,35,44,40,35,43,39,31,40,47,44,40,43,43,35,23,23,35,39,52,47,43,44,29,13,21,35,27,16,4,13,9,8,8,0,0,0,0,0,4,4,4,4,4,12,8,12,12,0,0,0,0,0,0,3,13,13,3,0,0,0,0,0,0,12,12,4,4,4,4,0,0,0,0,0,0,0,0,4,12,8,3,12,8,3,0,4,0,12,12,12,12,0,4,4,4,4,4,0,4,0,4,4,17,16,20,28,23,16,12,16,28,31,31,27,28,27,28,20,15,19,25,11,12,4,12,7,12,7,8,8,4,0,0,0,0,0,4,8,8,4,8,21,29,19,15,16,16,20,17,8,7,16,11,9,24,31,32,20,16,8,8,3,16,16,7,12,8,8,12,7,7,12,8,0,0,4,4,12,7,16,20,24,23,36,43,47,43,39,31,27,28,36,31,27,28,16,3,4,12,7,8,8,8,11,16,16,16,11,12,4,0,0,8,12,4,3,12,7,12,7,12,11,12,4,0,4,8,8,3,8,8,3,8,8,4,4,3,16,12,12,9,12,7,8,17,23,20,8,8,16,16,7,9,16,13,12,12,12,8,23,28,19,23,24,16,4,0,8,16,17,8,4,8,8,8,16,24,28,23,20,15,12,12,16,12,9,12,3,0,8,12,7,7,16,16,7,4,3,3,16,20,7,12,11,12,33,36,40,39,43,43,43,39,40,20,9,4,12,4,4,4,8,8,4,21,16,24,39,51,48,35,27,20,20,20,24,36,43,40,31,43,55,60,48,36,32,27,35,43,39,31,27,19,-1,-1,-1,-1,-1,-1,-1,-1,-1,-1,-1,-1,-1,-1,-1,-1,-1,-1,-1,-1,-1,-1,-1,-1,-1,-1,-1,-1,-1,-1,-1,-1,-1,-1,-1,-1,-1,-1,-1,-1,-1,-1,-1,-1,-1,-1,-1,-1,-1,-1,-1
-1,-1,-1,-1,-1,-1,-1,-1,-1,-1,-1,-1,-1,-1,-1,-1,-1,-1,-1,-1,-1,-1,-1,-1,-1,-1,-1,-1,-1,-1,-1,-1,-1,-1,-1,-1,-1,4,8,12,8,0,0,4,12,16,15,12,0,0,12,12,4,12,8,0,0,8,12,4,4,0,0,4,12,8,4,4,4,9,12,3,25,35,47,55,55,55,59,63,56,43,59,70,72,50,55,63,67,59,43,48,55,54,67,70,63,47,47,51,55,71,75,65,25,8,12,4,4,3,8,17,4,8,8,8,8,4,12,8,3,13,9,9,12,20,20,15,28,27,32,32,27,31,31,36,32,27,28,27,43,43,43,35,31,35,40,36,36,36,40,48,39,39,43,47,44,40,43,48,35,43,47,44,32,16,41,43,43,48,39,43,29,8,29,40,33,12,12,4,4,8,12,4,0,0,0,0,0,0,0,0,0,12,12,12,12,0,0,4,4,4,4,4,4,4,4,0,0,0,0,0,0,8,12,8,12,13,8,0,0,0,0,0,0,0,4,8,8,4,8,16,8,8,9,8,0,8,12,7,12,4,3,13,9,13,0,9,3,0,0,0,12,12,16,28,23,15,16,16,19,27,27,28,19,28,23,23,28,19,15,16,12,8,12,7,12,7,12,7,8,4,4,4,8,8,8,8,3,4,8,11,20,20,16,12,16,16,7,0,7,16,17,13,20,28,23,28,23,12,12,8,12,15,12,12,12,4,12,7,12,11,12,4,0,4,4,12,7,12,16,20,28,36,48,43,39,35,31,27,32,40,36,27,23,15,12,4,17,11,7,3,3,16,11,11,16,12,7,8,8,4,8,17,8,8,12,12,12,4,4,12,7,4,4,12,7,8,8,3,8,8,4,4,0,0,0,3,12,8,0,4,8,4,20,27,23,12,12,20,15,16,12,8,9,7,7,8,17,32,27,23,20,16,12,4,4,12,15,12,4,4,3,0,3,4,12,20,13,12,12,12,7,12,3,4,4,4,4,12,11,12,12,11,12,12,4,12,12,20,20,7,9,17,20,36,40,35,39,43,43,43,39,41,17,12,4,12,4,0,0,4,0,12,23,24,29,48,47,40,28,24,20,20,20,28,39,44,32,36,47,59,60,40,27,31,31,39,43,35,27,23,24,16,-1,-1,-1,-1,-1,-1,-1,-1,-1,-1,-1,-1,-1,-1,-1,-1,-1,-1,-1,-1,-1,-1,-1,-1,-1,-1,-1,-1,-1,-1,-1,-1,-1,-1,-1,-1,-1,-1,-1,-1,-1,-1,-1,-1,-1,-1,-1,-1,-1,-1
-1,-1,-1,-1,-1,-1,-1,-1,-1,-1,-1,-1,-1,-1,-1,-1,-1,-1,-1,-1,-1,-1,-1,-1,-1,-1,-1,-1,-1,-1,-1,-1,-1,-1,-1,-1,-1,0,3,0,4,0,0,4,12,16,15,12,4,4,12,8,4,12,8,0,0,8,12,4,4,4,4,4,12,4,12,4,4,4,4,4,20,35,64,68,50,54,58,63,51,47,67,75,63,55,59,67,67,51,43,52,59,54,67,74,68,43,47,60,58,67,73,41,12,12,7,4,12,8,25,20,4,4,4,8,8,8,11,12,4,4,3,9,16,15,15,15,28,32,28,23,32,31,27,31,32,32,31,23,40,43,43,35,39,44,35,35,35,36,36,48,35,53,47,43,36,31,39,52,48,43,52,48,37,20,36,43,39,43,35,39,36,24,32,32,29,12,12,0,0,4,12,8,0,0,0,0,0,0,0,0,0,8,12,12,8,0,0,8,12,12,8,0,0,0,0,0,0,0,0,0,0,4,12,7,8,9,8,4,4,4,4,4,4,4,8,8,3,4,8,11,17,4,8,12,4,4,8,7,7,8,3,4,4,4,4,0,4,0,4,4,12,7,12,20,20,20,20,20,20,24,23,23,23,20,20,28,27,28,20,15,12,12,8,12,12,16,16,7,12,8,8,12,3,3,4,3,12,8,4,12,16,15,12,8,11,16,12,8,3,12,9,9,12,20,32,36,31,20,12,8,12,15,12,12,12,0,8,12,7,12,7,8,4,8,8,4,7,12,12,15,23,31,39,43,35,31,35,31,31,31,31,28,19,28,24,12,7,12,7,8,8,11,16,12,16,12,7,8,4,4,4,7,16,16,11,16,12,4,4,3,12,8,0,8,12,3,8,8,3,4,4,4,4,4,12,8,12,8,0,4,0,12,23,31,32,17,17,28,23,15,15,12,4,7,8,4,20,27,32,23,20,8,4,12,7,21,24,16,4,12,8,8,8,8,9,17,4,13,0,8,7,7,8,4,4,4,8,7,12,11,16,16,12,16,14,3,20,28,20,13,9,8,24,35,35,36,48,39,48,39,31,28,9,8,4,12,8,0,0,4,16,28,31,28,23,39,49,33,11,16,20,28,23,32,44,36,28,40,60,63,51,31,23,40,39,43,39,31,28,19,20,7,-1,-1,-1,-1,-1,-1,-1,-1,-1,-1,-1,-1,-1,-1,-1,-1,-1,-1,-1,-1,-1,-1,-1,-1,-1,-1,-1,-1,-1,-1,-1,-1,-1,-1,-1,-1,-1,-1,-1,-1,-1,-1,-1,-1,-1,-1,-1,-1,-1,-1
-1,-1,-1,-1,-1,-1,-1,-1,-1,-1,-1,-1,-1,-1,-1,-1,-1,-1,-1,-1,-1,-1,-1,-1,-1,-1,-1,-1,-1,-1,-1,-1,-1,-1,-1,-1,-1,9,13,3,0,0,0,8,12,16,16,11,12,4,4,3,8,8,4,0,0,4,12,8,8,8,8,4,8,8,12,4,0,0,4,0,17,40,72,71,55,54,63,58,51,56,75,75,60,54,67,67,68,47,43,51,59,59,66,79,77,43,47,59,71,63,44,24,3,3,12,8,8,9,28,32,12,0,3,12,4,12,21,9,4,4,4,0,7,16,20,20,23,27,23,23,23,28,27,31,27,36,39,32,28,43,43,31,43,43,39,43,48,36,36,39,45,35,48,35,27,32,44,47,47,47,43,43,36,32,40,40,35,39,40,35,36,31,36,32,24,20,16,4,0,0,12,12,4,4,4,4,0,0,0,0,0,4,4,4,4,4,4,12,8,12,12,0,0,0,0,0,0,0,0,0,0,0,12,12,4,4,4,9,13,3,8,12,4,4,3,3,12,8,4,12,8,0,4,12,8,0,4,8,7,7,8,4,4,4,4,4,4,0,3,12,8,7,12,12,15,16,16,20,16,16,24,23,27,20,25,23,32,31,23,15,16,12,3,12,11,16,20,16,12,12,12,12,8,8,9,12,12,12,4,4,12,16,12,4,16,20,16,7,3,8,8,4,3,17,41,35,31,29,16,8,12,16,12,12,12,0,4,12,7,8,7,3,4,4,3,4,12,7,12,16,20,36,39,35,36,36,40,40,36,32,27,27,32,31,23,15,7,8,7,4,3,12,7,12,16,16,12,9,12,7,4,12,19,20,24,20,3,4,8,8,7,12,4,3,7,8,3,12,8,0,0,0,4,0,7,12,12,7,4,12,8,12,23,32,33,21,21,33,23,20,28,20,8,12,4,12,20,28,27,24,12,8,4,12,15,28,28,12,8,16,4,3,4,4,0,0,0,4,4,4,7,12,3,8,8,8,7,7,8,12,12,12,16,12,0,12,27,41,26,13,4,16,41,39,31,31,43,43,39,36,20,12,0,4,4,12,8,0,0,12,28,31,31,27,28,31,28,16,12,16,28,31,31,31,35,32,32,48,60,54,43,23,28,44,47,43,36,27,19,24,20,7,-1,-1,-1,-1,-1,-1,-1,-1,-1,-1,-1,-1,-1,-1,-1,-1,-1,-1,-1,-1,-1,-1,-1,-1,-1,-1,-1,-1,-1,-1,-1,-1,-1,-1,-1,-1,-1,-1,-1,-1,-1,-1,-1,-1,-1,-1,-1,-1,-1,-1
-1,-1,-1,-1,-1,-1,-1,-1,-1,-1,-1,-1,-1,-1,-1,-1,-1,-1,-1,-1,-1,-1,-1,-1,-1,-1,-1,-1,-1,-1,-1,-1,-1,-1,-1,-1,-1,12,4,4,0,0,0,12,16,16,16,12,12,0,0,8,12,4,0,4,4,4,12,4,12,9,4,4,4,4,8,8,4,0,7,9,9,41,72,75,59,54,63,63,51,59,70,71,50,60,67,70,68,47,39,51,54,58,66,74,68,43,47,67,75,70,28,16,12,8,11,17,4,9,37,35,25,4,4,12,8,12,12,0,0,3,13,9,8,12,20,28,27,28,23,23,23,20,28,35,35,36,40,36,23,40,35,31,48,47,43,56,47,31,27,31,36,40,39,36,23,28,40,52,64,50,39,43,40,31,35,35,39,43,35,31,31,35,35,23,28,23,16,12,4,4,8,12,8,8,12,8,0,0,0,0,0,0,0,4,0,4,12,8,4,12,12,0,0,0,0,0,0,0,0,0,0,0,12,12,4,8,4,9,8,8,12,12,0,4,8,8,7,12,4,4,0,0,0,12,12,0,0,4,8,8,3,4,4,4,4,12,8,4,4,7,12,7,17,12,20,12,16,16,8,12,20,23,27,33,20,24,27,31,28,15,15,16,12,8,12,20,23,20,7,12,7,16,16,8,8,12,3,8,8,4,3,12,7,4,17,24,20,12,7,12,11,9,7,8,23,36,32,19,15,8,12,12,8,11,16,4,0,8,12,3,8,8,4,4,8,8,3,7,7,16,16,32,39,40,36,36,35,35,31,23,32,35,40,36,23,28,16,3,8,4,8,3,8,7,12,7,8,9,16,16,12,29,36,27,23,20,12,4,3,7,8,4,0,8,12,3,8,11,17,4,4,4,8,4,8,4,4,12,7,12,8,8,15,19,15,8,12,20,20,20,28,20,8,12,12,11,16,20,19,15,7,8,17,20,28,52,40,3,16,23,17,8,4,4,4,8,4,8,4,4,12,7,8,8,4,4,12,8,4,12,7,12,16,12,4,11,36,42,18,4,12,23,39,48,36,35,43,47,40,19,12,4,9,4,8,8,4,0,4,29,48,39,31,32,28,24,16,12,16,15,27,31,31,31,35,35,36,52,55,51,40,19,32,44,47,43,27,28,23,15,12,12,-1,-1,-1,-1,-1,-1,-1,-1,-1,-1,-1,-1,-1,-1,-1,-1,-1,-1,-1,-1,-1,-1,-1,-1,-1,-1,-1,-1,-1,-1,-1,-1,-1,-1,-1,-1,-1,-1,-1,-1,-1,-1,-1,-1,-1,-1,-1,-1,-1,-1
-1,-1,-1,-1,-1,-1,-1,-1,-1,-1,-1,-1,-1,-1,-1,-1,-1,-1,-1,-1,-1,-1,-1,-1,-1,-1,-1,-1,-1,-1,-1,-1,-1,-1,-1,-1,-1,12,4,4,0,0,4,12,16,15,12,12,7,4,4,12,12,4,4,8,9,4,8,4,8,4,4,3,4,0,4,8,4,9,12,12,3,41,72,70,59,59,63,59,59,63,67,63,56,55,67,75,63,47,43,51,54,63,75,70,59,43,52,67,66,52,20,16,8,4,7,12,9,12,33,35,23,7,4,12,16,9,12,4,0,4,4,17,12,21,29,32,32,28,23,24,20,25,41,49,43,36,32,36,31,27,32,32,52,56,51,55,51,40,19,32,31,43,57,41,28,24,40,47,55,56,39,44,40,32,40,39,43,43,31,31,31,39,44,32,27,28,15,12,12,8,0,0,4,0,12,12,0,0,0,0,0,0,0,8,9,8,12,8,0,12,12,4,0,4,0,0,0,0,0,0,0,0,12,12,3,12,9,9,13,3,8,12,4,8,12,7,12,3,8,4,8,9,4,12,16,3,4,4,3,3,8,8,4,4,4,12,9,12,4,12,12,12,12,20,25,7,16,16,3,12,16,20,32,23,20,24,27,36,32,20,16,12,7,8,16,23,23,20,12,7,7,16,11,8,12,8,0,4,0,4,8,7,7,8,12,20,15,16,12,12,16,9,12,12,20,28,23,23,28,16,12,12,4,16,16,8,0,4,12,8,4,8,4,8,3,4,8,7,7,11,16,20,35,35,36,31,40,44,32,23,45,43,40,32,23,32,20,12,4,4,8,8,3,8,8,4,8,3,25,24,21,42,43,36,20,15,12,0,3,12,8,0,0,12,12,3,12,12,12,4,4,4,8,4,9,4,4,12,11,12,4,0,12,16,12,4,12,11,16,20,20,17,4,4,12,12,12,16,15,15,12,8,16,20,28,63,76,22,33,36,20,7,12,12,8,0,4,8,4,8,3,8,8,4,0,0,8,9,4,7,7,8,7,9,8,21,32,20,21,21,29,36,43,39,35,39,47,51,41,20,17,12,3,0,4,4,7,13,13,36,51,58,27,32,20,16,3,16,20,28,31,31,31,35,39,47,48,43,51,47,35,23,23,35,43,39,28,23,28,16,4,8,-1,-1,-1,-1,-1,-1,-1,-1,-1,-1,-1,-1,-1,-1,-1,-1,-1,-1,-1,-1,-1,-1,-1,-1,-1,-1,-1,-1,-1,-1,-1,-1,-1,-1,-1,-1,-1,-1,-1,-1,-1,-1,-1,-1,-1,-1,-1,-1,-1,-1
-1,-1,-1,-1,-1,-1,-1,-1,-1,-1,-1,-1,-1,-1,-1,-1,-1,-1,-1,-1,-1,-1,-1,-1,-1,-1,-1,-1,-1,-1,-1,-1,-1,-1,-1,-1,-1,3,12,8,0,0,8,12,12,15,16,12,8,13,13,8,12,3,13,9,9,4,8,4,4,3,4,4,8,4,0,8,8,3,3,16,16,41,59,62,63,59,63,63,63,63,63,60,47,60,75,75,59,51,47,51,59,63,70,71,51,43,51,71,67,43,24,12,4,0,0,0,8,12,20,31,32,20,17,8,16,26,17,8,4,3,4,24,28,15,15,23,27,27,27,29,20,24,40,43,35,32,23,31,44,36,23,28,58,51,55,60,51,45,20,28,27,53,43,36,32,27,35,43,47,43,35,40,40,36,44,39,43,43,31,35,35,44,39,31,31,28,20,15,16,12,3,13,9,13,12,12,3,4,4,3,0,4,4,12,9,12,12,8,0,8,12,8,4,8,4,0,0,0,0,0,0,0,12,12,4,4,4,4,4,4,8,12,3,12,12,12,12,8,12,4,0,8,13,20,16,11,12,4,8,8,3,4,4,4,8,16,14,16,8,12,7,12,7,20,20,12,20,15,8,4,16,20,28,23,15,20,32,31,27,28,16,12,7,16,24,23,19,16,11,12,12,11,12,3,4,4,0,0,8,9,7,12,7,12,11,16,20,20,20,16,11,12,4,4,7,20,20,28,27,20,16,8,0,12,16,12,4,4,7,12,4,4,4,12,8,0,4,12,7,12,8,16,36,40,36,32,40,39,31,31,39,44,32,20,32,31,24,16,4,4,0,7,12,4,3,4,8,9,16,19,22,41,39,28,15,16,12,4,4,8,8,4,4,8,12,3,8,8,3,8,8,12,8,4,4,12,4,12,12,12,12,8,12,12,0,8,13,8,12,16,16,4,4,0,7,12,3,12,16,15,16,12,20,20,24,55,81,36,42,32,16,8,12,12,12,8,12,4,4,12,8,4,4,4,4,4,4,9,0,12,12,4,0,4,4,16,24,20,29,23,28,39,43,35,39,39,51,52,32,20,13,8,4,4,4,4,25,20,20,35,56,48,23,20,12,12,8,15,20,23,31,32,27,40,47,51,52,48,43,47,44,32,19,40,39,31,23,20,15,8,0,4,-1,-1,-1,-1,-1,-1,-1,-1,-1,-1,-1,-1,-1,-1,-1,-1,-1,-1,-1,-1,-1,-1,-1,-1,-1,-1,-1,-1,-1,-1,-1,-1,-1,-1,-1,-1,-1,-1,-1,-1,-1,-1,-1,-1,-1,-1,-1,-1,-1,-1
-1,-1,-1,-1,-1,-1,-1,-1,-1,-1,-1,-1,-1,-1,-1,-1,-1,-1,-1,-1,-1,-1,-1,-1,-1,-1,-1,-1,-1,-1,-1,-1,-1,-1,-1,-1,-1,12,11,12,4,0,12,12,16,16,16,12,4,4,4,12,12,4,4,4,4,4,12,8,0,4,0,4,8,8,4,8,8,4,4,25,23,36,47,59,62,63,63,67,67,63,50,47,47,63,75,70,59,59,55,47,55,62,66,63,51,47,60,75,72,40,20,12,4,4,8,12,7,12,12,23,28,19,16,8,16,12,4,3,0,11,22,37,36,33,25,11,19,32,36,24,20,36,48,58,45,37,24,40,48,35,27,32,36,48,56,56,60,44,23,23,27,44,40,28,32,45,39,39,43,35,36,40,40,36,35,35,43,43,31,39,44,35,35,39,40,32,23,28,20,12,8,9,9,8,8,12,12,13,13,12,9,8,3,12,9,4,8,4,0,4,4,4,4,12,8,0,0,0,0,0,0,4,12,8,0,0,0,0,0,0,8,12,4,12,12,12,12,8,12,4,8,12,17,20,20,16,8,0,4,8,8,4,4,8,9,11,9,11,9,8,7,12,7,12,12,16,23,28,16,0,8,16,20,20,15,15,28,27,32,27,20,7,12,20,23,23,28,16,12,16,16,16,7,8,4,4,4,0,8,9,8,8,12,7,12,16,20,20,20,11,11,17,4,8,9,16,15,28,31,32,29,8,0,8,12,3,4,8,7,7,8,4,8,16,17,4,4,7,17,4,3,12,28,31,35,31,36,39,39,39,44,32,20,15,36,40,19,16,8,8,12,12,8,0,8,12,3,0,7,16,13,28,27,15,16,12,8,8,4,4,4,12,8,4,8,8,4,3,8,8,3,3,17,13,8,12,12,8,8,4,12,12,8,12,8,8,8,4,7,12,7,4,8,4,8,4,3,12,11,15,15,16,15,16,21,41,32,8,16,16,8,4,8,9,8,8,12,4,0,12,12,4,4,4,4,0,0,3,9,12,12,8,8,12,16,15,15,15,28,27,32,44,39,39,39,39,47,44,16,8,4,4,4,7,12,12,28,28,28,39,51,48,20,4,12,12,16,23,23,19,32,27,23,44,51,51,51,43,43,51,48,31,28,36,44,32,20,16,12,3,4,-1,-1,-1,-1,-1,-1,-1,-1,-1,-1,-1,-1,-1,-1,-1,-1,-1,-1,-1,-1,-1,-1,-1,-1,-1,-1,-1,-1,-1,-1,-1,-1,-1,-1,-1,-1,-1,-1,-1,-1,-1,-1,-1,-1,-1,-1,-1,-1,-1,-1,-1
-1,-1,-1,-1,-1,-1,-1,-1,-1,-1,-1,-1,-1,-1,-1,-1,-1,-1,-1,-1,-1,-1,-1,-1,-1,-1,-1,-1,-1,-1,-1,-1,-1,-1,-1,-1,-1,8,12,12,8,0,16,15,11,12,12,8,0,4,4,12,8,0,0,0,0,0,12,12,0,0,0,4,0,3,4,4,4,0,8,23,32,32,47,60,63,62,62,62,62,59,47,47,47,67,75,67,63,63,63,51,51,67,70,63,47,43,54,70,73,37,12,4,8,12,12,16,12,7,12,16,28,31,24,12,12,12,4,12,4,16,14,24,29,37,24,12,21,33,23,20,20,32,39,52,39,49,32,35,51,44,32,31,40,44,47,52,52,53,37,32,36,44,50,29,24,35,44,35,39,44,36,35,35,31,31,31,43,43,31,43,43,35,43,39,35,31,36,31,23,16,8,4,4,12,8,8,12,3,0,7,9,7,4,3,8,8,4,0,0,0,0,0,0,12,12,0,0,0,0,0,0,3,12,8,4,0,0,0,0,0,8,12,3,12,7,12,8,4,8,8,7,17,25,20,16,16,3,4,4,3,4,4,4,3,0,3,0,3,4,3,12,8,12,12,12,16,23,36,30,9,8,11,15,15,15,15,28,28,23,28,20,12,16,24,24,27,28,12,12,15,20,16,7,4,4,8,12,4,3,0,4,4,12,7,12,16,16,16,20,16,12,8,0,0,4,16,20,32,36,31,24,12,4,3,8,8,4,4,8,7,7,8,17,16,8,4,4,12,7,4,8,8,12,28,39,44,35,35,39,47,44,20,16,16,40,44,28,20,16,12,12,0,0,4,16,11,8,4,4,4,4,12,16,12,12,12,8,8,4,4,4,7,12,4,3,4,4,8,7,3,12,8,8,9,8,12,12,0,0,0,12,12,0,0,0,3,12,9,8,7,12,8,4,0,4,0,4,8,11,20,20,15,15,12,12,11,21,16,13,4,0,4,0,4,0,3,8,8,4,12,8,3,13,13,3,0,0,4,0,3,0,4,4,16,28,23,15,20,32,31,31,40,43,39,35,48,43,36,13,8,4,9,12,16,12,16,28,23,36,55,55,45,17,8,12,8,20,28,23,28,23,32,27,44,47,47,47,43,52,60,47,31,27,31,35,28,16,12,7,8,12,-1,-1,-1,-1,-1,-1,-1,-1,-1,-1,-1,-1,-1,-1,-1,-1,-1,-1,-1,-1,-1,-1,-1,-1,-1,-1,-1,-1,-1,-1,-1,-1,-1,-1,-1,-1,-1,-1,-1,-1,-1,-1,-1,-1,-1,-1,-1,-1,-1,-1,-1
-1,-1,-1,-1,-1,-1,-1,-1,-1,-1,-1,-1,-1,-1,-1,-1,-1,-1,-1,-1,-1,-1,-1,-1,-1,-1,-1,-1,-1,-1,-1,-1,-1,-1,-1,-1,-1,8,12,16,12,4,20,24,16,7,8,4,0,8,12,4,4,0,0,0,0,0,8,12,4,4,0,3,13,13,3,0,0,0,12,28,28,36,47,50,63,63,63,63,62,63,47,47,47,72,75,62,62,62,62,56,52,67,70,68,48,47,63,67,55,32,0,4,12,16,15,20,12,16,7,17,28,35,41,21,12,8,9,16,13,11,8,21,11,28,28,12,0,12,11,12,20,24,53,47,52,56,45,43,64,53,41,41,36,40,52,58,49,44,36,36,45,40,40,32,23,31,40,35,39,44,36,36,35,35,31,31,39,43,35,43,43,39,47,48,35,35,35,44,40,29,8,0,4,12,8,8,4,9,8,4,0,8,13,8,12,8,0,0,0,0,0,0,0,8,12,4,4,4,4,0,0,4,4,12,8,0,4,4,4,4,3,12,12,12,12,12,4,0,4,4,8,4,11,16,12,8,8,12,8,8,4,4,8,8,4,4,4,4,12,7,4,4,12,7,12,12,29,27,20,3,8,16,20,15,16,15,23,28,20,19,20,16,20,20,24,27,32,17,7,20,23,25,12,9,3,8,12,8,12,9,4,4,17,7,17,16,12,16,20,11,8,4,4,8,8,7,16,23,36,32,20,12,8,8,3,7,8,4,4,8,7,4,7,12,4,8,12,4,7,12,4,4,4,25,44,43,39,40,35,47,53,24,12,16,41,39,27,23,20,7,12,7,12,12,16,11,12,3,0,3,12,8,3,4,12,7,3,4,3,4,8,12,3,12,8,0,0,4,12,7,12,7,4,4,4,12,12,8,8,4,12,12,3,13,13,8,12,7,4,12,16,12,0,4,0,4,0,4,16,24,23,20,15,12,12,8,12,16,12,4,0,8,12,4,8,8,3,3,4,4,4,4,4,4,4,4,4,4,4,4,8,13,16,16,28,28,20,28,31,31,35,39,39,35,31,39,40,20,4,12,4,8,12,12,12,25,27,24,54,72,65,29,12,4,4,3,25,23,28,23,36,36,36,48,51,47,47,47,47,51,51,40,27,31,31,28,16,7,12,4,16,-1,-1,-1,-1,-1,-1,-1,-1,-1,-1,-1,-1,-1,-1,-1,-1,-1,-1,-1,-1,-1,-1,-1,-1,-1,-1,-1,-1,-1,-1,-1,-1,-1,-1,-1,-1,-1,-1,-1,-1,-1,-1,-1,-1,-1,-1,-1,-1,-1,-1,-1
-1,-1,-1,-1,-1,-1,-1,-1,-1,-1,-1,-1,-1,-1,-1,-1,-1,-1,-1,-1,-1,-1,-1,-1,-1,-1,-1,-1,-1,-1,-1,-1,-1,-1,-1,-1,-1,4,8,12,12,8,15,20,16,12,4,0,0,8,12,4,0,0,0,0,0,0,4,4,12,8,0,4,4,4,4,0,0,4,12,28,28,40,47,50,63,68,59,59,71,71,56,43,47,72,75,62,62,62,70,69,43,63,75,68,47,52,58,63,51,33,8,12,17,20,28,23,16,16,17,7,20,27,28,16,12,3,4,7,17,21,17,16,20,28,24,9,8,9,9,13,26,29,54,48,48,43,35,47,69,57,41,27,31,35,35,35,40,39,31,40,39,40,44,35,27,36,44,35,35,35,36,36,44,39,31,31,35,39,39,43,43,43,47,43,39,44,35,43,39,28,12,4,3,12,8,8,4,9,8,3,4,4,8,17,4,4,4,4,4,4,0,0,0,4,8,4,8,8,8,4,4,0,0,8,12,4,8,8,4,12,8,12,12,12,11,12,4,0,0,4,3,8,8,8,12,3,12,8,4,4,8,4,8,4,0,0,0,0,8,16,13,3,4,8,8,7,15,16,16,12,7,20,23,20,12,20,23,20,15,23,28,20,20,20,20,27,28,12,12,24,28,20,12,4,0,4,8,7,7,8,4,4,12,7,12,7,8,8,12,12,4,4,8,8,7,12,16,28,31,28,15,16,12,4,8,12,7,12,4,3,8,4,8,4,4,12,8,4,12,8,0,0,4,21,41,43,43,35,35,48,43,36,20,16,32,36,31,23,16,7,7,11,17,12,16,16,12,8,4,4,8,8,4,4,4,3,9,8,12,8,12,11,16,16,8,0,0,4,12,11,12,7,9,8,0,12,16,12,7,8,7,12,3,3,4,4,12,16,9,16,15,12,4,8,4,8,4,4,16,24,28,19,15,16,12,3,16,16,8,0,4,12,7,4,4,3,8,8,4,4,0,4,4,4,4,8,12,9,8,8,8,25,23,20,28,23,28,31,35,35,40,39,36,32,36,40,37,20,4,3,8,9,8,8,9,28,31,27,49,55,45,12,12,8,0,3,15,27,27,32,44,39,31,43,47,43,43,51,51,51,47,36,28,27,28,20,12,12,12,8,15,-1,-1,-1,-1,-1,-1,-1,-1,-1,-1,-1,-1,-1,-1,-1,-1,-1,-1,-1,-1,-1,-1,-1,-1,-1,-1,-1,-1,-1,-1,-1,-1,-1,-1,-1,-1,-1,-1,-1,-1,-1,-1,-1,-1,-1,-1,-1,-1,-1,-1,-1
-1,-1,-1,-1,-1,-1,-1,-1,-1,-1,-1,-1,-1,-1,-1,-1,-1,-1,-1,-1,-1,-1,-1,-1,-1,-1,-1,-1,-1,-1,-1,-1,-1,-1,-1,-1,-1,8,4,7,7,9,16,15,16,12,4,0,0,8,12,3,0,0,0,0,0,0,0,0,8,12,4,0,0,0,0,0,0,8,12,24,28,40,47,51,63,63,54,59,75,75,56,43,47,67,75,67,62,62,75,69,43,63,67,58,55,50,63,63,52,25,12,12,8,15,23,27,19,16,8,12,15,20,20,20,12,12,3,4,8,16,12,15,23,28,16,0,4,0,4,8,17,12,28,31,36,36,40,57,56,48,35,31,31,35,35,36,40,48,35,36,43,43,43,39,31,40,43,35,31,31,31,31,39,43,31,40,35,40,43,47,43,43,47,43,43,39,39,43,48,32,20,12,4,12,12,12,8,4,8,4,4,13,4,16,8,12,4,9,12,4,0,4,0,0,4,0,4,4,4,12,8,0,0,4,4,4,4,4,4,12,8,8,12,7,12,7,8,4,4,8,7,7,4,13,7,8,8,4,4,0,3,0,4,4,0,4,0,0,4,12,8,4,4,3,4,12,16,12,12,12,12,20,23,20,12,20,15,16,20,28,23,15,20,20,20,28,23,16,12,20,28,20,16,8,13,9,8,7,12,3,8,4,8,7,12,4,4,4,12,8,4,4,4,3,12,11,15,19,28,23,15,15,12,4,12,7,12,7,8,8,3,0,4,4,8,8,4,8,12,4,4,4,12,11,20,40,39,39,40,35,35,39,37,20,23,32,31,24,12,12,7,16,7,4,7,12,3,8,8,4,4,3,8,8,4,8,11,16,7,12,17,24,24,16,3,4,4,8,8,12,16,12,8,12,4,12,16,16,12,7,12,3,8,8,4,4,12,16,9,20,15,8,8,12,4,7,8,8,16,20,19,15,16,15,12,8,12,16,9,4,8,8,7,12,4,12,7,4,12,8,4,12,8,4,12,7,12,9,8,9,17,28,27,28,19,27,31,35,39,40,36,36,32,24,23,27,32,20,9,8,4,0,4,0,12,32,43,40,39,45,16,12,16,12,0,8,29,49,39,40,48,35,31,39,43,35,43,55,60,51,48,36,28,24,20,15,12,12,12,12,20,-1,-1,-1,-1,-1,-1,-1,-1,-1,-1,-1,-1,-1,-1,-1,-1,-1,-1,-1,-1,-1,-1,-1,-1,-1,-1,-1,-1,-1,-1,-1,-1,-1,-1,-1,-1,-1,-1,-1,-1,-1,-1,-1,-1,-1,-1,-1,-1,-1,-1,-1
-1,-1,-1,-1,-1,-1,-1,-1,-1,-1,-1,-1,-1,-1,-1,-1,-1,-1,-1,-1,-1,-1,-1,-1,-1,-1,-1,-1,-1,-1,-1,-1,-1,-1,-1,-1,-1,16,12,12,12,0,11,15,12,12,8,0,0,8,12,4,0,0,0,0,4,4,4,4,4,12,8,0,0,0,0,0,4,12,8,25,28,40,47,47,59,62,59,59,70,71,51,47,47,63,75,70,62,63,70,73,43,59,63,59,59,58,63,67,57,16,8,16,4,20,23,36,36,16,3,16,16,16,15,15,16,12,4,0,8,8,12,20,28,24,12,4,3,4,12,11,12,4,26,23,24,24,33,44,39,40,44,39,40,48,39,31,36,43,39,31,43,43,48,43,40,39,48,36,36,36,35,35,35,39,40,35,35,39,39,43,43,43,47,47,43,43,39,48,39,31,23,15,12,8,12,4,16,21,12,17,4,16,22,16,4,12,4,8,12,8,9,8,0,0,0,0,0,0,0,8,12,4,0,0,0,0,0,0,8,12,4,4,8,7,7,8,4,4,4,3,7,7,4,12,12,4,4,4,8,4,8,4,4,8,4,8,4,4,0,4,4,4,12,8,0,4,12,7,16,7,17,20,20,16,16,15,12,16,24,23,19,20,24,24,20,19,15,16,12,16,20,16,11,12,3,8,8,7,12,7,12,4,4,12,8,0,0,4,0,4,8,12,4,8,7,16,24,24,20,20,15,15,12,8,12,12,7,8,8,7,12,4,4,8,8,4,4,12,8,4,12,8,12,12,12,32,43,39,35,36,36,44,36,23,32,36,36,20,12,16,12,12,12,0,4,8,8,3,3,4,4,8,8,3,0,12,15,16,12,4,12,28,28,16,12,4,4,4,4,12,16,12,4,4,4,4,12,15,12,12,12,8,8,3,8,8,12,7,0,16,25,9,12,12,9,8,8,13,20,24,24,16,12,16,16,12,3,8,9,8,4,4,12,8,0,8,12,4,7,12,7,16,17,8,11,16,12,9,12,3,20,23,27,28,23,31,35,39,39,36,28,20,20,15,24,40,35,25,12,12,0,0,4,12,20,36,43,49,36,33,7,8,12,12,0,12,32,56,55,47,44,36,27,35,35,36,48,60,54,47,39,27,20,20,16,16,12,8,9,8,12,-1,-1,-1,-1,-1,-1,-1,-1,-1,-1,-1,-1,-1,-1,-1,-1,-1,-1,-1,-1,-1,-1,-1,-1,-1,-1,-1,-1,-1,-1,-1,-1,-1,-1,-1,-1,-1,-1,-1,-1,-1,-1,-1,-1,-1,-1,-1,-1,-1,-1,-1
-1,-1,-1,-1,-1,-1,-1,-1,-1,-1,-1,-1,-1,-1,-1,-1,-1,-1,-1,-1,-1,-1,-1,-1,-1,-1,-1,-1,-1,-1,-1,-1,-1,-1,-1,-1,-1,8,8,17,11,9,16,15,12,8,12,4,0,12,12,0,4,0,4,0,8,12,12,8,0,12,12,0,0,0,0,4,8,8,3,25,23,36,39,51,58,67,63,59,67,63,55,51,51,59,70,75,67,63,67,72,51,54,59,54,63,67,62,63,53,20,14,16,8,12,28,39,41,16,12,15,12,12,15,15,15,12,4,4,8,8,12,25,24,20,3,12,11,13,8,24,21,8,13,16,11,12,12,32,35,36,40,48,43,43,48,32,36,39,35,35,44,43,47,48,35,43,39,35,36,36,44,39,31,40,43,39,39,39,35,44,39,48,51,51,47,43,44,39,48,35,27,23,20,4,8,9,30,20,13,11,8,17,8,7,12,8,9,17,8,7,13,8,0,0,0,0,0,0,4,8,12,3,0,0,0,0,0,0,8,12,4,0,4,12,7,0,4,8,12,8,7,7,8,7,17,4,4,4,4,4,4,4,4,4,4,8,12,3,0,0,0,0,12,12,0,0,4,12,16,12,12,16,12,16,16,11,12,12,20,20,28,24,20,19,24,24,16,16,11,8,12,12,16,11,8,3,7,7,7,11,16,3,4,4,4,0,4,8,8,4,12,16,9,8,12,16,20,15,16,15,15,16,12,12,16,16,17,4,4,12,12,4,4,4,3,4,8,8,3,8,11,16,12,12,4,25,44,43,31,31,36,35,32,28,35,35,27,20,12,15,12,12,12,0,0,4,4,8,8,4,4,4,3,8,9,11,16,21,17,13,17,28,23,16,12,4,0,0,0,12,12,4,12,8,0,0,12,15,12,12,16,12,3,8,8,4,4,4,4,16,15,4,12,8,4,9,4,12,15,15,15,16,12,12,16,12,4,4,8,12,4,4,4,3,4,4,3,8,7,12,16,15,12,0,16,20,20,4,16,20,27,19,28,23,32,44,43,43,36,28,16,16,16,20,28,40,41,17,12,8,0,4,12,20,28,36,39,36,27,24,12,3,12,8,4,25,44,59,63,56,36,27,31,31,31,31,43,51,55,52,36,28,20,20,16,12,12,4,0,4,4,-1,-1,-1,-1,-1,-1,-1,-1,-1,-1,-1,-1,-1,-1,-1,-1,-1,-1,-1,-1,-1,-1,-1,-1,-1,-1,-1,-1,-1,-1,-1,-1,-1,-1,-1,-1,-1,-1,-1,-1,-1,-1,-1,-1,-1,-1,-1,-1,-1,-1,-1
-1,-1,-1,-1,-1,-1,-1,-1,-1,-1,-1,-1,-1,-1,-1,-1,-1,-1,-1,-1,-1,-1,-1,-1,-1,-1,-1,-1,-1,-1,-1,-1,-1,-1,-1,-1,-1,8,8,7,16,12,15,15,12,4,12,8,0,12,12,0,3,9,3,0,12,12,12,8,4,12,8,0,4,4,4,8,8,3,8,16,23,28,35,51,63,67,63,58,63,63,51,51,59,58,62,67,63,63,59,62,63,59,59,55,63,75,71,64,45,23,21,16,16,4,37,39,27,16,24,28,13,13,20,20,16,11,12,12,4,13,17,16,16,16,12,12,15,9,9,23,29,17,9,8,3,0,9,29,32,31,31,39,43,43,43,31,31,35,39,40,35,47,51,39,40,39,43,39,31,31,43,43,31,39,43,39,43,39,39,35,43,47,47,47,47,43,35,48,43,39,36,28,20,13,13,3,12,15,9,12,0,3,4,3,8,9,12,21,13,17,3,4,0,0,0,0,0,0,8,12,4,4,0,0,0,0,0,0,4,12,8,4,0,7,12,8,8,12,7,4,7,7,3,12,8,0,0,0,0,0,0,0,0,0,0,8,12,4,4,4,0,0,8,12,4,4,0,12,15,12,12,12,8,11,16,3,12,16,15,16,19,29,20,24,20,20,16,16,21,4,12,12,8,12,3,8,7,7,7,16,16,11,12,4,0,4,8,8,7,12,7,12,4,4,16,16,11,12,12,15,15,12,12,16,15,15,12,0,4,12,8,8,12,4,8,8,3,3,12,7,16,16,11,12,4,16,36,40,32,27,35,35,23,32,44,39,27,15,16,15,12,12,12,0,0,0,0,4,4,4,4,0,8,12,8,12,7,8,13,12,9,16,15,12,8,8,4,4,4,12,16,4,12,8,0,0,12,15,12,16,16,8,8,12,4,0,0,0,8,16,20,14,11,8,3,0,4,12,15,12,16,16,7,12,7,4,4,4,4,4,0,0,0,8,12,4,12,12,12,20,15,16,15,12,20,31,32,14,16,36,44,32,23,27,36,48,47,40,28,20,12,12,12,29,32,27,25,3,0,3,8,17,25,32,36,31,27,28,19,15,12,8,12,4,8,32,56,63,59,43,27,31,36,36,35,35,43,47,47,44,27,19,16,16,12,12,12,0,0,4,4,-1,-1,-1,-1,-1,-1,-1,-1,-1,-1,-1,-1,-1,-1,-1,-1,-1,-1,-1,-1,-1,-1,-1,-1,-1,-1,-1,-1,-1,-1,-1,-1,-1,-1,-1,-1,-1,-1,-1,-1,-1,-1,-1,-1,-1,-1,-1,-1,-1,-1,-1
-1,-1,-1,-1,-1,-1,-1,-1,-1,-1,-1,-1,-1,-1,-1,-1,-1,-1,-1,-1,-1,-1,-1,-1,-1,-1,-1,-1,-1,-1,-1,-1,-1,-1,-1,-1,-1,12,12,12,12,12,15,16,12,4,12,12,4,12,7,0,4,4,4,4,8,9,8,4,3,12,8,4,8,8,4,4,4,8,12,7,15,23,49,60,63,62,63,59,63,54,47,55,62,63,59,54,63,63,54,72,70,63,63,60,60,71,70,60,31,31,29,17,16,9,42,39,27,24,29,19,12,8,16,20,16,7,12,12,16,13,0,8,17,20,16,16,16,13,18,29,23,15,7,4,4,7,9,16,19,28,31,31,31,43,47,44,31,40,39,40,44,47,47,43,40,43,47,43,31,35,43,39,31,43,43,43,43,43,39,39,43,47,47,47,43,39,39,39,43,39,40,32,16,4,8,4,4,16,4,17,12,8,4,8,4,9,16,12,0,4,8,4,9,4,4,0,0,0,8,12,4,4,4,4,4,4,0,4,0,12,12,8,4,8,4,4,4,3,7,4,8,7,12,3,4,4,4,4,4,4,4,0,0,0,0,8,9,8,12,8,0,0,4,4,8,8,4,12,16,12,7,12,3,12,8,4,16,16,16,12,21,24,19,20,15,16,12,20,20,4,12,12,4,12,8,8,12,8,12,11,16,20,20,12,4,8,12,3,12,11,12,4,8,9,11,12,3,4,17,20,16,8,12,15,15,15,12,0,8,12,4,8,12,4,8,4,13,8,8,12,7,16,16,3,12,16,24,32,23,28,40,44,32,27,39,44,32,20,20,20,16,12,12,0,0,0,0,0,4,8,8,4,12,8,4,0,4,4,12,7,0,3,12,8,4,0,4,0,4,20,20,7,12,4,0,4,12,16,16,16,16,3,12,7,4,4,4,4,12,16,15,9,12,12,12,9,3,12,16,12,12,12,12,7,0,4,0,0,0,4,4,4,4,7,12,4,12,16,12,24,20,21,33,16,24,39,41,14,24,45,39,31,36,40,44,43,43,32,20,16,11,12,12,24,28,16,3,8,8,12,16,15,28,35,31,23,16,15,16,12,8,12,12,0,21,53,63,63,60,45,27,31,35,35,40,39,39,47,48,32,23,24,16,7,12,12,12,4,4,8,8,-1,-1,-1,-1,-1,-1,-1,-1,-1,-1,-1,-1,-1,-1,-1,-1,-1,-1,-1,-1,-1,-1,-1,-1,-1,-1,-1,-1,-1,-1,-1,-1,-1,-1,-1,-1,-1,-1,-1,-1,-1,-1,-1,-1,-1,-1,-1,-1,-1,-1,-1
-1,-1,-1,-1,-1,-1,-1,-1,-1,-1,-1,-1,-1,-1,-1,-1,-1,-1,-1,-1,-1,-1,-1,-1,-1,-1,-1,-1,-1,-1,-1,-1,-1,-1,-1,-1,-1,16,12,12,8,12,16,11,12,8,12,8,8,12,8,9,3,3,9,3,4,0,4,0,4,8,8,8,12,8,0,0,0,12,12,4,21,36,43,51,59,62,59,55,58,64,48,56,66,72,55,50,59,58,59,71,74,62,63,60,47,63,70,64,35,31,27,12,4,12,32,31,27,29,16,16,16,7,12,16,12,4,7,9,12,4,9,8,4,12,20,15,11,0,9,16,24,24,20,16,13,15,12,12,16,20,28,23,32,44,43,44,40,48,44,39,43,43,47,43,39,43,43,43,35,39,39,35,35,43,43,43,47,43,39,43,47,47,47,47,44,35,39,39,39,43,35,31,28,13,8,4,4,7,13,8,8,12,12,7,3,18,20,8,4,4,8,14,12,12,3,0,0,0,4,4,4,4,4,8,8,8,4,8,4,7,9,8,9,4,9,4,4,8,7,4,3,12,7,8,4,8,8,8,4,12,7,0,4,0,0,4,4,4,8,12,4,4,0,0,4,12,8,12,12,8,7,7,8,3,3,8,11,16,12,12,12,15,20,15,16,11,16,25,16,8,12,8,4,12,7,12,7,4,12,7,16,28,23,16,12,7,12,8,12,11,12,0,12,9,12,4,0,0,12,16,12,3,12,16,15,15,12,0,12,12,0,4,8,8,8,4,9,8,4,12,7,16,11,8,12,16,15,19,20,24,49,39,27,27,35,35,27,20,20,20,16,16,12,0,0,0,0,0,8,12,3,4,4,4,0,8,12,8,8,4,0,0,4,0,4,3,13,9,13,20,15,16,12,0,0,8,12,16,16,16,12,3,12,12,12,8,8,8,7,12,11,9,8,12,12,0,4,8,12,12,11,12,7,12,8,8,4,4,4,8,8,4,8,7,3,8,9,20,20,32,23,16,23,21,28,43,41,18,29,36,35,40,52,51,48,40,36,28,20,16,11,15,15,15,12,0,0,4,0,16,23,23,36,48,46,30,12,12,12,4,4,12,12,4,33,60,67,59,47,31,31,35,43,39,35,43,39,39,40,23,23,20,12,8,12,16,12,3,12,8,4,-1,-1,-1,-1,-1,-1,-1,-1,-1,-1,-1,-1,-1,-1,-1,-1,-1,-1,-1,-1,-1,-1,-1,-1,-1,-1,-1,-1,-1,-1,-1,-1,-1,-1,-1,-1,-1,-1,-1,-1,-1,-1,-1,-1,-1,-1,-1,-1,-1,-1,-1
-1,-1,-1,-1,-1,-1,-1,-1,-1,-1,-1,-1,-1,-1,-1,-1,-1,-1,-1,-1,-1,-1,-1,-1,-1,-1,-1,-1,-1,-1,-1,-1,-1,-1,-1,-1,-1,16,16,16,9,12,12,16,12,7,8,4,12,12,4,0,4,4,0,4,0,0,0,0,0,4,12,7,12,8,0,0,0,12,12,4,20,31,39,47,54,63,63,50,59,55,43,56,67,63,55,54,59,55,60,76,79,72,58,59,47,55,67,63,43,35,31,23,16,16,23,32,27,25,7,16,20,21,8,7,9,9,7,4,7,8,3,3,8,18,20,20,20,12,0,4,21,20,25,24,18,24,12,4,8,16,20,19,28,36,40,40,49,51,52,43,48,43,47,43,43,39,39,43,39,43,35,35,40,39,47,47,43,43,43,47,47,47,47,47,35,40,39,35,43,43,31,31,31,21,8,8,13,17,3,3,4,3,7,16,4,3,16,8,0,0,8,9,12,12,8,0,0,0,0,4,4,4,4,4,4,4,4,4,12,7,0,4,8,9,7,8,4,7,12,8,8,7,7,8,4,4,4,4,0,12,16,9,3,0,0,0,3,9,4,4,8,8,4,4,4,8,12,12,12,4,8,7,3,8,8,3,16,7,12,8,8,12,20,20,16,16,11,16,16,7,12,3,8,8,7,16,16,4,4,4,17,28,23,15,16,12,7,12,12,11,12,4,12,12,0,4,0,4,12,7,8,8,3,16,20,16,8,4,12,8,0,0,4,4,4,4,0,4,4,12,8,12,12,12,11,12,24,23,15,15,36,40,19,32,36,31,27,28,20,20,20,20,16,4,0,0,0,0,12,12,8,8,4,4,4,12,8,4,4,4,4,4,4,8,8,3,4,4,3,16,20,16,8,4,0,12,16,16,16,12,8,4,12,11,12,9,4,8,7,8,3,0,4,8,12,4,4,3,8,11,16,7,8,4,4,4,4,4,0,4,4,4,3,7,8,4,4,25,31,35,27,16,16,13,37,39,34,12,19,32,36,40,47,51,43,35,27,16,8,7,15,23,29,21,9,8,4,4,12,24,27,32,44,36,15,7,8,8,4,0,4,16,11,7,41,63,68,56,48,35,35,43,43,43,35,39,40,27,31,28,20,16,12,7,12,12,12,4,8,8,4,-1,-1,-1,-1,-1,-1,-1,-1,-1,-1,-1,-1,-1,-1,-1,-1,-1,-1,-1,-1,-1,-1,-1,-1,-1,-1,-1,-1,-1,-1,-1,-1,-1,-1,-1,-1,-1,-1,-1,-1,-1,-1,-1,-1,-1,-1,-1,-1,-1,-1,-1
-1,-1,-1,-1,-1,-1,-1,-1,-1,-1,-1,-1,-1,-1,-1,-1,-1,-1,-1,-1,-1,-1,-1,-1,-1,-1,-1,-1,-1,-1,-1,-1,-1,-1,-1,-1,-1,16,16,16,9,12,12,15,16,12,4,0,8,12,4,0,0,0,0,0,0,0,0,4,4,4,12,8,12,12,0,0,4,12,8,8,15,27,35,52,55,59,63,60,51,51,47,47,59,58,59,72,63,51,51,67,75,67,63,64,47,60,63,58,56,39,44,40,33,25,24,27,28,16,12,12,12,11,12,3,0,8,12,4,12,8,8,12,8,13,21,29,27,25,4,4,12,12,25,19,17,25,4,16,25,17,20,24,23,27,31,35,40,52,52,52,47,47,47,47,43,35,35,43,47,43,39,43,35,43,47,47,43,43,47,47,47,43,43,43,44,35,35,35,44,39,31,31,31,29,8,12,0,17,9,8,4,8,17,16,8,4,3,8,8,4,8,4,8,7,12,4,0,0,0,8,12,4,12,8,0,0,0,0,8,12,4,4,12,9,16,12,4,12,11,9,7,7,8,4,0,0,0,0,0,12,12,0,4,0,0,0,4,0,4,0,4,4,4,8,8,3,12,16,12,0,8,12,3,4,8,8,7,12,4,4,4,12,20,16,11,20,16,12,7,16,7,8,8,4,12,15,16,12,4,4,12,15,15,15,15,12,12,11,16,16,7,12,12,12,8,8,4,8,8,4,4,4,12,16,15,12,4,8,7,3,4,4,0,0,0,0,0,0,8,12,4,8,12,7,12,7,19,33,24,24,27,32,15,28,31,28,27,28,15,15,15,15,16,12,4,4,4,3,16,11,8,4,8,12,8,8,4,0,0,0,0,0,0,4,8,8,4,12,8,12,16,12,4,8,9,11,16,20,20,12,4,0,8,12,4,4,8,12,16,8,0,4,4,4,3,4,8,8,3,12,12,12,9,4,4,4,8,12,9,4,4,4,8,12,4,0,0,25,43,47,41,17,4,12,24,27,16,16,23,31,35,35,43,43,43,35,29,13,3,16,28,23,15,12,4,12,7,12,20,36,40,35,36,29,8,12,3,0,0,4,8,11,16,20,40,50,50,51,47,39,39,43,47,43,40,31,32,19,27,23,15,12,12,16,12,8,12,4,3,12,8,-1,-1,-1,-1,-1,-1,-1,-1,-1,-1,-1,-1,-1,-1,-1,-1,-1,-1,-1,-1,-1,-1,-1,-1,-1,-1,-1,-1,-1,-1,-1,-1,-1,-1,-1,-1,-1,-1,-1,-1,-1,-1,-1,-1,-1,-1,-1,-1,-1,-1,-1
-1,-1,-1,-1,-1,-1,-1,-1,-1,-1,-1,-1,-1,-1,-1,-1,-1,-1,-1,-1,-1,-1,-1,-1,-1,-1,-1,-1,-1,-1,-1,-1,-1,-1,-1,-1,-1,16,16,16,9,7,12,16,15,12,0,0,4,12,8,0,0,0,0,0,4,4,4,8,8,4,4,3,12,7,4,4,8,8,4,8,16,23,36,39,51,54,67,63,51,47,47,47,59,63,59,67,81,52,47,63,66,63,63,59,47,55,63,59,55,43,39,39,32,20,28,27,28,16,12,12,4,17,16,8,4,4,7,9,17,8,12,12,12,9,4,20,28,20,12,8,12,12,16,16,17,12,4,25,28,12,16,24,32,28,32,40,40,35,43,47,47,47,47,47,43,35,31,43,47,43,48,47,39,43,47,47,48,39,47,51,47,39,39,43,39,35,40,40,35,35,31,35,35,23,20,20,13,12,0,4,0,4,8,16,17,4,4,13,16,8,8,12,4,16,11,8,4,0,0,8,16,14,16,8,0,0,0,0,4,4,4,8,12,14,16,8,0,8,12,4,8,8,4,0,0,0,0,0,4,12,8,0,0,0,0,0,0,0,0,0,0,4,4,9,12,3,8,16,16,4,8,12,4,0,8,12,3,0,4,4,4,17,20,16,21,25,16,3,12,11,12,3,4,4,12,16,15,12,4,12,11,12,16,20,16,11,12,12,16,12,12,16,16,20,16,8,0,4,4,4,4,4,17,20,16,8,0,4,8,8,12,8,0,4,0,0,0,0,8,12,4,4,8,8,4,12,20,20,24,24,23,32,20,23,32,20,28,28,15,15,15,15,15,12,0,4,12,11,16,16,3,4,12,8,4,4,4,4,0,4,4,4,4,4,4,4,0,12,12,12,12,4,4,7,13,7,16,28,23,12,0,0,4,0,4,8,12,16,16,8,4,8,8,4,8,8,3,4,8,8,3,4,4,4,4,8,7,7,8,4,4,8,9,8,0,0,0,25,52,60,46,23,21,16,12,16,3,20,27,40,39,31,35,39,39,32,12,12,12,25,27,25,7,12,4,17,16,16,28,43,43,31,28,16,3,12,13,8,0,8,12,12,15,28,43,47,47,47,47,47,43,43,43,47,45,19,20,24,23,20,15,12,12,16,12,3,4,12,8,12,12,-1,-1,-1,-1,-1,-1,-1,-1,-1,-1,-1,-1,-1,-1,-1,-1,-1,-1,-1,-1,-1,-1,-1,-1,-1,-1,-1,-1,-1,-1,-1,-1,-1,-1,-1,-1,-1,-1,-1,-1,-1,-1,-1,-1,-1,-1,-1,-1,-1,-1,-1
-1,-1,-1,-1,-1,-1,-1,-1,-1,-1,-1,-1,-1,-1,-1,-1,-1,-1,-1,-1,-1,-1,-1,-1,-1,-1,-1,-1,-1,-1,-1,-1,-1,-1,-1,-1,-1,15,15,12,0,7,12,12,16,12,4,0,0,12,12,0,0,4,0,4,8,12,4,3,3,4,4,8,8,7,12,4,4,4,0,4,16,32,36,40,48,64,67,58,55,51,47,47,59,67,59,64,58,51,47,68,71,63,63,58,51,60,58,55,51,47,43,39,40,32,27,27,20,11,11,20,13,4,16,17,8,4,8,4,8,12,4,8,29,25,4,12,16,16,16,7,12,11,12,4,8,12,8,17,27,29,13,20,28,23,15,32,35,40,39,47,47,47,47,43,43,35,35,48,47,39,52,51,39,47,47,48,43,39,47,51,43,39,43,39,39,40,35,35,39,40,32,40,40,32,27,24,13,7,4,4,4,4,3,7,8,3,0,12,16,12,12,12,9,16,16,12,8,0,4,0,8,0,8,4,4,4,0,0,0,0,4,0,3,0,3,4,4,3,3,4,4,4,0,0,0,0,0,0,3,12,8,0,0,0,0,0,0,0,4,0,4,8,12,9,4,8,4,16,11,8,7,12,4,0,3,12,9,12,12,8,0,8,16,20,17,8,12,8,12,12,8,8,4,0,4,12,16,16,12,7,12,12,11,16,16,12,12,8,12,12,16,15,15,15,16,12,4,4,4,4,0,4,12,15,12,0,0,0,4,0,7,9,4,8,4,4,4,4,3,7,8,4,4,4,0,12,16,16,20,20,28,28,15,23,28,20,23,28,20,20,15,15,15,12,4,8,11,20,20,16,7,12,4,4,0,4,8,8,4,12,8,0,4,4,4,4,4,12,12,8,12,4,4,12,8,4,17,28,23,12,0,0,4,8,8,12,11,16,20,16,7,12,3,4,4,7,12,4,4,4,0,4,8,8,12,7,12,12,12,8,8,7,4,4,0,0,0,20,39,61,42,26,20,0,0,4,12,32,31,40,44,35,35,31,31,25,8,16,13,24,28,16,4,4,4,12,15,20,40,51,53,24,20,12,4,4,12,12,0,12,12,12,28,35,43,47,47,47,47,47,47,43,47,47,36,16,15,19,15,16,15,12,12,7,12,8,0,12,12,8,-1,-1,-1,-1,-1,-1,-1,-1,-1,-1,-1,-1,-1,-1,-1,-1,-1,-1,-1,-1,-1,-1,-1,-1,-1,-1,-1,-1,-1,-1,-1,-1,-1,-1,-1,-1,-1,-1,-1,-1,-1,-1,-1,-1,-1,-1,-1,-1,-1,-1,-1,-1
-1,-1,-1,-1,-1,-1,-1,-1,-1,-1,-1,-1,-1,-1,-1,-1,-1,-1,-1,-1,-1,-1,-1,-1,-1,-1,-1,-1,-1,-1,-1,-1,-1,-1,-1,-1,-1,15,15,12,0,12,12,12,12,12,8,0,4,12,8,4,4,8,4,8,12,8,0,8,12,4,4,4,4,8,12,4,4,0,0,0,12,23,31,35,35,56,58,59,59,55,47,47,59,70,72,47,56,51,47,63,71,63,63,59,47,55,59,51,47,47,47,43,43,44,31,32,20,12,16,23,17,8,12,4,8,4,8,4,4,8,4,4,28,33,12,8,16,20,12,12,8,17,9,4,4,4,0,9,25,20,13,21,23,19,12,29,36,36,40,43,48,43,47,47,43,35,40,43,48,39,47,51,43,51,52,39,43,39,43,51,47,43,43,44,35,35,35,36,44,40,31,35,35,35,36,24,8,12,9,4,8,9,12,0,13,12,8,7,16,3,4,3,3,17,16,12,12,0,3,12,13,4,12,9,12,4,4,4,4,4,8,8,4,4,4,4,4,8,8,4,0,0,0,0,0,0,0,0,4,12,8,0,0,0,0,0,0,0,8,9,8,12,8,8,9,8,0,12,11,12,8,8,8,4,4,8,9,8,12,12,4,4,12,15,12,4,12,8,12,12,4,8,8,4,4,3,12,16,16,12,7,16,16,12,7,12,8,4,12,16,15,15,15,15,15,12,0,8,12,8,9,8,12,11,9,8,4,4,4,8,12,4,0,4,0,0,0,4,8,8,4,0,0,0,0,8,12,12,16,15,23,28,20,19,23,24,19,19,24,24,20,20,20,16,7,7,12,16,15,16,16,17,4,4,0,8,12,4,4,12,8,4,8,8,4,4,12,16,12,4,8,8,8,8,3,0,12,15,16,12,4,4,8,8,4,4,16,20,20,16,16,16,12,4,4,12,8,0,0,0,0,8,12,4,16,7,12,11,12,12,7,12,8,0,0,0,0,12,28,36,20,8,22,21,16,29,28,41,35,31,35,39,40,32,20,12,17,12,4,11,20,12,4,4,12,16,20,28,44,47,41,20,16,8,0,0,12,12,0,12,12,16,45,43,39,43,47,47,47,47,47,47,47,48,32,12,20,24,16,12,15,16,12,4,8,12,4,12,12,8,-1,-1,-1,-1,-1,-1,-1,-1,-1,-1,-1,-1,-1,-1,-1,-1,-1,-1,-1,-1,-1,-1,-1,-1,-1,-1,-1,-1,-1,-1,-1,-1,-1,-1,-1,-1,-1,-1,-1,-1,-1,-1,-1,-1,-1,-1,-1,-1,-1,-1,-1,-1
-1,-1,-1,-1,-1,-1,-1,-1,-1,-1,-1,-1,-1,-1,-1,-1,-1,-1,-1,-1,-1,-1,-1,-1,-1,-1,-1,-1,-1,-1,-1,-1,-1,-1,-1,-1,-1,20,15,12,9,16,12,8,12,7,12,3,8,8,3,8,8,4,4,4,4,3,4,12,8,0,0,0,0,4,4,12,8,0,0,4,12,20,36,39,35,43,51,55,58,63,51,51,59,75,75,56,39,52,60,63,66,72,59,60,51,51,51,47,47,47,47,48,51,56,35,31,24,3,21,23,16,4,4,4,8,12,9,8,4,4,4,13,29,20,8,12,20,16,7,4,4,8,9,17,12,4,8,4,4,12,8,4,25,23,12,8,23,32,32,40,48,47,47,47,47,44,35,43,39,48,51,51,47,47,47,43,39,43,47,51,43,43,47,35,36,40,40,35,35,35,36,40,39,35,35,23,11,9,8,4,4,7,16,12,9,12,4,17,11,8,4,4,4,4,7,12,16,8,8,12,4,9,8,8,8,8,12,4,4,4,4,4,8,9,8,0,0,4,8,8,4,0,0,0,0,0,0,0,0,12,12,0,0,0,0,0,0,0,12,12,4,4,4,12,9,12,4,12,11,12,4,4,12,8,0,4,0,4,8,9,8,4,12,16,12,8,12,4,12,12,0,4,8,4,8,8,7,12,16,12,12,15,16,12,7,8,3,4,12,16,15,15,15,16,16,16,4,12,16,12,4,7,8,3,0,4,0,8,12,7,17,4,4,0,0,0,0,3,12,9,4,4,0,0,0,4,8,8,7,16,20,19,20,24,23,20,23,28,20,20,20,15,20,19,20,12,12,12,16,20,20,16,7,12,4,7,12,4,8,8,8,12,4,4,4,4,8,11,17,4,3,0,3,4,8,4,11,16,3,4,4,9,4,9,4,4,12,16,15,20,20,20,16,8,8,12,3,4,4,4,0,8,12,12,11,12,4,12,15,15,12,12,12,0,0,0,4,8,21,29,25,18,21,24,32,32,27,31,32,32,40,40,36,33,18,8,16,7,4,7,16,17,12,8,12,20,28,31,39,40,20,12,12,3,0,0,8,12,4,12,16,20,48,52,35,48,51,51,47,47,47,47,47,44,24,12,20,15,7,12,16,15,12,0,4,12,8,12,12,3,-1,-1,-1,-1,-1,-1,-1,-1,-1,-1,-1,-1,-1,-1,-1,-1,-1,-1,-1,-1,-1,-1,-1,-1,-1,-1,-1,-1,-1,-1,-1,-1,-1,-1,-1,-1,-1,-1,-1,-1,-1,-1,-1,-1,-1,-1,-1,-1,-1,-1,-1,-1
-1,-1,-1,-1,-1,-1,-1,-1,-1,-1,-1,-1,-1,-1,-1,-1,-1,-1,-1,-1,-1,-1,-1,-1,-1,-1,-1,-1,-1,-1,-1,-1,-1,-1,-1,-1,-1,23,25,3,0,7,12,3,12,7,12,11,12,3,8,8,4,0,0,0,4,8,8,4,4,0,0,0,0,4,4,12,8,4,4,8,8,7,28,39,43,35,43,51,63,63,54,55,54,67,71,60,39,43,51,54,62,67,59,51,47,47,47,47,47,43,48,51,64,55,39,31,28,12,12,15,16,16,13,8,16,16,8,8,8,4,4,16,21,8,8,21,19,16,8,4,9,13,3,8,12,4,3,9,3,4,4,8,21,23,12,3,21,19,28,31,43,43,43,47,47,43,39,43,39,43,51,51,51,47,47,39,48,47,47,47,43,48,43,40,35,35,35,40,40,36,35,35,43,39,35,41,24,13,16,16,4,20,25,8,9,8,0,8,12,3,4,12,7,4,4,9,25,16,8,12,4,0,8,12,4,12,12,0,0,0,0,0,12,9,12,0,0,4,8,8,4,4,4,0,0,0,0,0,0,12,12,0,0,0,0,0,0,0,8,12,4,0,0,8,9,8,8,12,7,12,4,0,12,12,0,0,0,0,4,0,4,0,4,16,7,12,8,4,12,8,4,4,9,4,8,4,12,7,12,7,16,20,20,16,7,4,8,8,3,16,16,16,15,12,16,11,8,12,15,16,9,8,4,0,0,4,4,12,8,12,12,8,8,4,0,4,4,3,3,4,8,8,4,4,4,4,4,4,4,16,20,24,24,20,20,15,28,28,15,15,19,25,15,28,24,16,7,12,12,16,15,16,16,17,8,16,8,0,4,0,12,12,4,4,8,8,4,9,8,8,8,8,8,4,4,4,16,7,4,4,4,8,12,4,0,0,4,16,20,24,23,20,15,12,12,12,8,8,12,8,4,0,3,8,16,3,4,17,24,24,16,12,8,0,0,4,12,7,16,20,16,12,25,33,40,36,23,27,27,27,31,32,20,12,4,8,12,17,9,7,12,8,12,12,12,23,31,36,31,32,12,7,8,4,0,0,4,8,8,17,24,41,52,43,44,43,47,51,47,43,47,47,47,40,20,16,20,16,7,8,12,16,12,3,4,12,8,8,12,3,4,-1,-1,-1,-1,-1,-1,-1,-1,-1,-1,-1,-1,-1,-1,-1,-1,-1,-1,-1,-1,-1,-1,-1,-1,-1,-1,-1,-1,-1,-1,-1,-1,-1,-1,-1,-1,-1,-1,-1,-1,-1,-1,-1,-1,-1,-1,-1,-1,-1,-1,-1
-1,-1,-1,-1,-1,-1,-1,-1,-1,-1,-1,-1,-1,-1,-1,-1,-1,-1,-1,-1,-1,-1,-1,-1,-1,-1,-1,-1,-1,-1,-1,-1,-1,-1,-1,-1,-1,24,25,4,0,4,12,8,12,12,16,16,7,8,8,4,0,0,0,4,8,8,4,0,4,4,4,4,4,8,8,4,4,8,12,4,4,4,25,44,47,44,35,47,59,63,63,59,54,58,63,54,52,43,51,50,59,63,59,51,47,47,47,47,47,43,48,60,63,59,43,31,27,15,7,16,20,28,21,12,20,25,12,12,9,12,3,20,25,4,8,12,20,20,3,3,9,9,9,4,4,8,13,8,4,8,4,4,8,20,17,17,8,12,28,31,39,48,35,43,43,43,43,47,43,43,47,51,51,47,47,43,43,47,47,47,43,39,43,35,40,40,36,35,35,36,40,40,39,48,35,35,32,25,21,20,17,25,20,13,4,9,4,4,3,8,8,12,16,13,8,4,21,21,7,17,4,4,12,12,0,12,12,4,4,4,0,0,8,9,8,0,0,8,12,8,8,8,8,4,0,0,0,0,0,8,12,4,4,4,4,4,0,0,4,8,8,4,0,4,0,4,8,12,3,12,8,0,8,12,4,0,4,4,4,4,4,4,0,8,12,3,4,8,8,4,8,12,4,12,8,0,8,12,3,12,16,15,16,16,16,4,4,12,8,12,12,16,16,8,12,11,16,20,16,16,12,0,0,0,0,8,12,4,4,12,16,12,12,12,4,8,8,8,8,4,4,4,8,12,8,8,4,0,0,12,16,15,20,15,15,15,23,28,20,15,20,15,20,20,24,20,12,16,12,12,16,15,15,12,16,11,8,4,3,12,11,12,12,8,4,4,3,7,4,8,4,4,0,4,4,4,12,8,0,3,12,13,11,12,4,0,4,12,16,20,28,23,15,12,12,16,12,9,12,8,3,12,9,13,11,8,3,12,20,20,20,20,8,0,4,12,16,16,15,20,20,20,24,24,23,32,20,23,32,32,24,20,12,8,12,4,3,8,8,8,8,4,12,8,12,32,39,36,23,20,7,8,4,4,0,4,0,4,0,12,28,43,47,43,43,43,48,52,47,39,48,47,39,27,20,20,16,11,12,4,12,12,12,11,12,4,4,4,8,8,4,-1,-1,-1,-1,-1,-1,-1,-1,-1,-1,-1,-1,-1,-1,-1,-1,-1,-1,-1,-1,-1,-1,-1,-1,-1,-1,-1,-1,-1,-1,-1,-1,-1,-1,-1,-1,-1,-1,-1,-1,-1,-1,-1,-1,-1,-1,-1,-1,-1,-1,-1
-1,-1,-1,-1,-1,-1,-1,-1,-1,-1,-1,-1,-1,-1,-1,-1,-1,-1,-1,-1,-1,-1,-1,-1,-1,-1,-1,-1,-1,-1,-1,-1,-1,-1,-1,-1,-1,16,16,8,4,4,12,7,16,11,11,16,7,8,4,0,4,4,4,8,8,4,0,0,8,12,4,4,4,4,4,0,0,8,12,4,4,0,16,36,47,48,31,56,59,59,58,60,54,67,63,51,43,43,51,55,55,59,63,60,48,43,47,51,51,43,43,55,71,68,48,31,36,32,21,7,16,23,29,17,24,16,12,16,13,8,8,21,24,12,7,17,12,20,12,4,4,4,4,4,4,8,12,4,4,7,8,4,4,3,8,4,8,4,25,23,40,39,39,39,39,43,47,47,47,43,47,55,55,51,51,43,48,47,47,47,43,35,39,39,35,35,36,40,39,35,35,35,44,39,35,40,36,20,8,12,7,8,16,8,4,4,4,4,12,12,12,16,16,9,4,8,4,4,16,12,4,8,9,11,9,16,9,12,8,12,4,0,4,0,4,0,0,12,12,12,12,4,8,8,4,0,0,0,0,4,8,4,8,4,8,8,4,4,4,4,8,8,4,4,4,4,4,12,8,8,12,4,3,8,4,4,8,8,8,4,8,8,4,3,8,8,4,3,4,4,12,8,0,12,12,4,4,8,8,12,15,16,12,16,16,7,4,12,7,12,8,12,12,4,17,16,11,16,16,12,16,12,4,0,0,12,12,0,0,8,12,12,16,12,0,4,4,4,4,4,4,4,12,8,4,8,8,4,4,12,7,12,16,15,15,15,20,28,23,15,15,15,15,15,15,15,15,15,16,12,12,15,15,16,16,16,4,4,16,25,25,12,12,12,0,4,12,11,13,9,9,9,17,8,8,8,3,3,4,4,7,12,17,16,8,0,8,12,12,15,28,28,15,12,12,12,4,4,4,4,4,12,8,8,11,16,12,7,12,20,24,20,8,9,17,20,20,20,28,23,23,32,33,25,16,20,20,23,28,20,16,16,4,12,12,0,0,8,16,3,4,3,12,8,20,40,35,32,24,12,8,4,0,3,9,3,4,4,12,20,40,47,43,48,47,43,43,43,47,43,43,39,31,28,20,20,16,7,12,4,12,12,12,16,12,4,0,0,4,4,9,-1,-1,-1,-1,-1,-1,-1,-1,-1,-1,-1,-1,-1,-1,-1,-1,-1,-1,-1,-1,-1,-1,-1,-1,-1,-1,-1,-1,-1,-1,-1,-1,-1,-1,-1,-1,-1,-1,-1,-1,-1,-1,-1,-1,-1,-1,-1,-1,-1,-1,-1
-1,-1,-1,-1,-1,-1,-1,-1,-1,-1,-1,-1,-1,-1,-1,-1,-1,-1,-1,-1,-1,-1,-1,-1,-1,-1,-1,-1,-1,-1,-1,-1,-1,-1,-1,-1,-1,12,7,8,8,8,7,7,11,16,12,16,12,4,0,0,8,12,4,4,4,0,0,0,12,12,0,0,0,0,0,0,0,4,4,8,8,4,12,24,53,47,31,65,72,51,50,51,60,71,72,48,35,48,55,54,50,60,63,59,43,43,47,55,60,48,35,56,67,76,61,27,31,31,28,12,12,24,25,17,16,8,4,16,8,4,0,12,20,12,12,7,16,16,8,4,4,8,18,13,4,8,12,3,8,12,4,0,0,4,4,8,9,3,16,20,32,40,39,35,40,39,47,47,47,47,47,50,51,60,55,47,47,48,39,43,43,39,35,39,40,36,35,35,43,39,31,31,35,39,40,35,36,28,20,12,8,4,8,4,0,0,0,0,12,16,12,12,12,0,12,12,3,12,21,16,9,8,4,7,14,16,4,16,18,16,3,0,0,0,0,0,0,8,12,12,8,0,4,8,8,4,4,4,0,0,4,0,4,0,4,4,4,8,8,4,4,8,4,9,12,3,0,8,12,3,4,12,8,0,0,4,4,4,4,0,4,8,12,3,4,4,8,8,4,0,4,0,0,8,12,8,4,8,12,16,16,12,12,16,15,16,12,4,7,12,4,12,12,0,8,16,16,12,12,12,15,16,12,4,4,8,12,4,4,4,7,16,20,16,4,0,0,0,0,8,12,4,4,4,0,4,8,4,8,4,4,4,12,16,15,15,15,23,28,20,20,20,20,20,16,20,24,20,20,16,12,15,15,15,15,16,9,8,17,20,20,21,13,7,0,7,16,17,9,9,9,9,12,8,4,4,8,8,4,0,12,16,9,16,12,0,12,12,16,20,28,23,15,8,8,12,4,0,4,0,4,16,16,12,20,19,16,12,7,25,23,15,11,16,20,20,20,20,28,23,23,28,16,7,12,16,24,23,20,12,12,8,4,12,7,4,4,8,11,17,9,4,8,16,36,40,32,19,16,8,4,0,0,4,0,4,8,12,16,28,44,47,47,47,47,43,39,48,51,43,40,32,19,20,20,16,8,4,12,8,12,12,12,12,8,8,4,4,0,0,8,-1,-1,-1,-1,-1,-1,-1,-1,-1,-1,-1,-1,-1,-1,-1,-1,-1,-1,-1,-1,-1,-1,-1,-1,-1,-1,-1,-1,-1,-1,-1,-1,-1,-1,-1,-1,-1,-1,-1,-1,-1,-1,-1,-1,-1,-1,-1,-1,-1,-1,-1
