-1,-1,-1,-1,-1,-1,-1,-1,-1,-1,-1,-1,-1,-1,-1,-1,-1,-1,-1,-1,-1,-1,-1,-1,-1,-1,-1,-1,-1,-1,-1,-1,-1,-1,-1,-1,-1,-1,6,7,2,3,3,0,1,3,2,0,0,0,0,0,0,0,0,0,0,3,3,0,0,0,0,0,0,0,2,2,2,3,3,6,7,6,6,4,4,5,5,4,6,8,7,7,7,8,8,4,4,6,6,4,4,4,5,4,4,2,1,1,5,7,7,5,1,1,1,0,3,4,3,3,4,6,4,4,4,4,4,4,4,4,4,4,4,8,8,3,3,7,7,4,4,7,8,4,4,7,6,3,6,6,7,8,8,6,7,5,6,4,2,3,2,0,3,3,0,0,0,0,0,3,3,0,0,0,0,0,0,0,0,0,0,0,0,1,1,1,1,1,1,1,1,3,2,0,0,0,1,1,2,2,1,0,0,0,0,0,0,3,3,1,1,1,1,1,2,2,1,0,0,0,0,0,0,5,4,6,4,2,1,5,6,3,2,1,3,2,3,3,1,0,1,0,0,2,3,3,3,2,3,1,3,2,3,2,2,2,1,0,3,3,3,3,1,2,2,1,0,3,3,2,3,1,0,0,0,0,0,1,1,3,2,0,0,0,0,0,0,1,3,4,4,3,3,4,4,4,3,3,4,3,0,0,1,0,2,3,2,4,6,3,0,0,2,4,4,6,7,5,3,2,1,3,3,2,3,2,2,3,2,3,2,0,0,0,0,0,0,0,0,0,0,0,0,0,0,0,0,0,0,0,0,0,0,0,0,0,3,3,3,3,3,2,0,0,0,0,1,3,2,2,3,1,1,0,2,2,2,2,3,1,1,1,1,2,4,8,6,0,1,1,1,6,7,3,2,0,0,0,0,7,7,3,6,8,7,2,3,1,3,4,2,4,5,5,8,7,6,7,7,8,8,9,9,9,13,9,-1,-1,-1,-1,-1,-1,-1,-1,-1,-1,-1,-1,-1,-1,-1,-1,-1,-1,-1,-1,-1,-1,-1,-1,-1
-1,-1,-1,-1,-1,-1,-1,-1,-1,-1,-1,-1,-1,-1,-1,-1,-1,-1,-1,-1,-1,-1,-1,-1,-1,-1,-1,-1,-1,-1,-1,-1,-1,-1,-1,-1,-1,-1,9,6,1,3,3,0,2,3,1,0,1,0,0,0,0,0,0,0,0,3,3,0,0,0,0,0,0,0,1,0,1,5,3,4,6,6,6,6,6,7,7,4,6,8,9,5,8,8,8,4,4,7,7,6,3,6,6,6,7,2,3,1,2,6,6,3,1,1,1,1,5,4,2,3,4,4,4,4,4,6,6,6,6,6,6,4,4,8,8,3,5,8,7,4,4,7,7,4,6,5,6,4,4,4,6,8,8,4,5,7,7,6,3,3,3,0,3,3,0,0,0,0,0,3,3,0,0,0,0,0,0,0,0,0,0,0,0,2,3,1,1,1,1,1,1,1,1,0,0,1,2,2,1,1,0,0,0,0,0,0,0,3,3,0,0,0,1,2,2,1,0,0,0,0,0,0,0,3,4,4,3,1,3,4,4,3,2,2,2,3,3,3,2,2,2,1,1,1,3,3,3,1,2,2,2,3,2,3,1,2,2,1,3,3,3,3,0,1,2,2,1,3,3,1,2,2,1,1,1,0,1,2,2,1,1,0,0,0,0,0,0,0,3,4,4,3,3,4,4,4,4,3,3,2,0,1,2,1,2,2,4,6,4,2,0,2,2,4,4,4,5,4,2,1,1,3,3,3,3,1,1,1,2,3,1,0,0,0,0,0,0,0,0,0,0,0,0,0,0,0,0,0,0,0,0,0,0,0,0,0,3,3,3,3,3,2,0,0,0,0,1,1,1,1,1,1,1,1,2,1,2,1,2,2,1,2,2,5,1,6,5,1,2,2,2,5,6,3,2,0,0,0,0,7,7,3,7,8,6,3,3,2,3,4,2,4,3,3,8,8,4,6,8,9,8,12,9,13,18,11,-1,-1,-1,-1,-1,-1,-1,-1,-1,-1,-1,-1,-1,-1,-1,-1,-1,-1,-1,-1,-1,-1,-1,-1,-1
-1,-1,-1,-1,-1,-1,-1,-1,-1,-1,-1,-1,-1,-1,-1,-1,-1,-1,-1,-1,-1,-1,-1,-1,-1,-1,-1,-1,-1,-1,-1,-1,-1,-1,-1,-1,-1,-1,10,6,1,3,2,0,2,3,2,2,1,0,0,0,0,0,0,0,0,3,3,0,0,0,0,0,0,0,0,0,2,4,5,4,6,8,7,4,4,5,5,4,7,11,9,5,7,8,5,3,4,5,7,6,3,6,4,8,7,5,2,1,3,4,4,2,2,0,0,0,2,3,2,2,3,4,6,4,4,7,8,6,6,4,4,3,4,8,7,4,4,5,5,4,3,4,4,7,7,7,7,6,4,6,6,8,7,6,7,7,7,6,2,4,5,0,3,3,0,0,0,0,0,3,3,0,0,0,0,0,0,0,0,0,0,0,0,3,3,0,0,0,0,0,0,0,0,0,0,2,3,1,0,0,0,0,0,0,0,0,0,3,3,0,0,0,1,3,2,0,0,0,0,0,0,0,0,3,4,4,3,0,3,4,3,2,2,2,3,3,3,3,2,2,1,2,2,2,2,3,2,2,1,3,2,3,2,3,2,1,3,2,2,3,3,3,0,0,1,3,2,3,2,0,1,1,1,2,2,1,2,3,1,0,0,0,0,0,0,0,0,0,3,4,4,4,3,3,4,4,4,4,3,1,0,2,3,1,2,2,2,4,4,1,1,3,3,5,6,6,7,6,3,2,0,3,3,3,2,0,0,0,2,3,1,0,0,0,0,0,0,0,0,0,0,0,0,0,0,0,0,0,0,0,0,0,0,0,0,0,3,3,2,2,2,1,0,0,0,1,2,2,2,0,0,2,3,1,1,3,2,1,0,1,0,1,1,2,4,4,2,2,3,1,1,1,1,0,1,0,0,0,1,7,6,3,8,8,4,3,3,3,3,4,2,4,3,3,8,8,4,6,9,9,8,9,9,14,17,14,-1,-1,-1,-1,-1,-1,-1,-1,-1,-1,-1,-1,-1,-1,-1,-1,-1,-1,-1,-1,-1,-1,-1,-1,-1
-1,-1,-1,-1,-1,-1,-1,-1,-1,-1,-1,-1,-1,-1,-1,-1,-1,-1,-1,-1,-1,-1,-1,-1,-1,-1,-1,-1,-1,-1,-1,-1,-1,-1,-1,-1,-1,-1,9,5,2,2,1,1,1,3,2,0,1,0,0,0,0,0,0,0,0,3,3,0,0,0,0,0,0,0,0,0,3,4,3,7,8,7,8,4,4,7,7,6,5,9,11,7,6,7,7,4,6,7,5,4,4,4,4,7,8,6,5,1,1,2,3,3,3,1,1,1,1,2,2,1,3,6,7,6,4,8,7,8,8,4,3,3,3,4,6,6,6,8,7,3,3,4,3,8,8,7,5,4,3,4,6,7,9,6,5,8,7,4,2,7,6,0,3,3,0,0,0,0,0,3,3,0,0,0,0,0,0,0,0,0,0,0,0,3,3,0,0,0,0,0,0,0,0,0,1,3,2,0,0,0,0,0,0,0,0,0,0,3,3,0,1,0,1,2,2,1,0,0,0,0,0,0,0,3,4,4,3,0,3,3,3,2,1,3,3,4,4,3,2,2,2,1,1,3,2,3,2,3,2,3,3,3,3,2,3,1,2,3,1,3,3,3,1,0,0,3,4,3,1,0,0,0,0,1,3,2,3,3,0,0,0,0,0,0,0,0,0,0,3,4,4,4,3,3,4,4,4,4,3,1,0,3,3,0,1,1,1,4,3,2,3,4,3,3,4,4,6,4,4,3,0,3,4,3,1,0,0,0,1,3,2,0,0,0,0,0,0,0,0,0,0,0,0,0,0,0,0,0,0,0,0,0,0,0,0,0,2,3,1,0,1,0,0,0,0,2,3,2,3,1,1,5,4,2,3,6,3,2,2,1,0,0,0,3,2,3,1,3,4,3,2,3,4,2,1,1,0,0,2,4,4,3,8,8,4,3,3,3,3,4,2,4,5,5,8,7,6,7,8,9,9,10,9,10,17,16,-1,-1,-1,-1,-1,-1,-1,-1,-1,-1,-1,-1,-1,-1,-1,-1,-1,-1,-1,-1,-1,-1,-1,-1,-1
-1,-1,-1,-1,-1,-1,-1,-1,-1,-1,-1,-1,-1,-1,-1,-1,-1,-1,-1,-1,-1,-1,-1,-1,-1,-1,-1,-1,-1,-1,-1,-1,-1,-1,-1,-1,-1,-1,15,15,7,2,4,2,4,4,3,0,0,0,0,0,0,0,0,0,1,3,2,0,0,0,0,0,0,0,0,0,3,4,3,10,9,6,6,4,4,7,8,5,6,9,8,7,6,6,7,6,6,7,8,6,6,6,6,7,8,6,3,1,1,1,1,3,2,1,4,4,1,2,2,2,6,8,5,4,4,6,6,9,12,7,6,3,4,4,6,7,7,7,9,6,2,6,4,8,8,7,7,4,4,7,7,10,7,8,7,7,8,6,4,6,6,1,3,3,0,0,1,0,1,2,3,1,1,0,0,0,0,0,0,0,0,0,1,3,2,0,0,0,0,0,0,1,1,1,2,2,1,0,0,0,0,0,0,0,0,0,0,2,3,1,2,2,2,1,2,2,1,0,0,0,0,0,1,2,6,6,5,2,2,3,2,2,2,3,6,7,6,4,2,2,2,1,1,3,2,2,3,2,3,2,5,2,5,1,2,3,1,2,2,3,3,3,2,0,0,3,4,3,1,1,1,1,1,1,3,2,3,2,0,1,1,1,1,1,1,1,1,0,3,4,4,4,5,4,6,4,4,4,3,2,4,5,3,2,1,1,2,3,5,2,3,4,3,3,4,4,4,4,4,5,1,3,4,3,1,1,1,1,0,2,3,1,1,1,0,1,1,1,1,1,0,0,0,0,1,1,1,1,1,1,1,1,0,0,0,0,1,2,2,1,1,1,1,0,0,3,3,2,3,1,2,4,6,5,5,7,7,1,2,4,2,2,2,5,1,1,1,3,3,3,2,7,5,1,2,2,1,2,5,4,3,3,8,7,4,3,3,2,3,4,4,6,5,6,7,6,6,8,9,10,10,12,10,13,9,15,-1,-1,-1,-1,-1,-1,-1,-1,-1,-1,-1,-1,-1,-1,-1,-1,-1,-1,-1,-1,-1,-1,-1,-1,-1
-1,-1,-1,-1,-1,-1,-1,-1,-1,-1,-1,-1,-1,-1,-1,-1,-1,-1,-1,-1,-1,-1,-1,-1,-1,-1,-1,-1,-1,-1,-1,-1,-1,-1,-1,-1,-1,-1,28,2,3,1,1,1,1,3,2,0,0,0,0,0,0,0,0,1,2,2,1,0,0,0,0,1,0,1,0,0,3,4,5,8,7,4,4,6,7,8,9,7,6,7,8,6,3,6,7,10,7,9,7,6,6,7,7,7,8,6,1,0,0,1,2,2,1,1,1,1,1,2,3,1,2,6,4,3,4,4,4,8,8,4,4,4,6,6,7,7,7,6,8,7,4,6,6,7,8,6,6,4,4,7,8,6,6,7,8,6,6,7,7,5,2,3,3,3,1,0,1,2,1,1,1,3,2,0,0,0,0,0,0,0,0,1,2,2,1,0,0,0,0,0,0,2,3,1,1,1,0,0,0,0,0,0,0,0,0,0,0,2,2,2,2,4,2,0,1,3,2,0,0,0,0,0,1,4,6,3,5,3,2,3,2,1,2,3,4,7,7,6,3,2,1,1,1,1,1,2,3,2,1,5,2,5,2,1,3,3,3,2,3,4,3,3,3,0,0,3,3,1,1,1,1,3,2,2,3,2,3,1,0,2,3,1,1,1,3,2,1,2,1,4,4,4,4,7,8,5,3,3,1,2,1,2,1,0,1,2,3,1,1,1,1,3,3,3,4,4,4,3,5,4,3,3,3,3,1,4,4,2,0,1,1,1,3,2,0,2,3,1,3,2,0,0,0,0,1,3,4,2,2,4,3,1,0,0,1,1,1,1,1,1,1,2,2,1,0,2,3,3,2,0,2,3,2,1,2,7,6,0,1,1,1,1,1,1,1,1,3,2,1,1,1,3,5,0,1,1,3,4,7,3,3,4,7,7,3,1,3,2,2,5,1,2,1,3,6,4,4,8,11,12,13,10,8,12,2,11,15,-1,-1,-1,-1,-1,-1,-1,-1,-1,-1,-1,-1,-1,-1,-1,-1,-1,-1,-1,-1,-1,-1,-1,-1
-1,-1,-1,-1,-1,-1,-1,-1,-1,-1,-1,-1,-1,-1,-1,-1,-1,-1,-1,-1,-1,-1,-1,-1,-1,-1,-1,-1,-1,-1,-1,-1,-1,-1,-1,-1,-1,-1,26,9,2,0,0,0,2,3,1,0,0,0,0,0,0,0,0,2,3,1,0,0,0,1,1,2,2,2,0,0,3,4,8,8,4,4,6,7,7,8,8,6,7,7,5,6,4,4,4,8,8,8,8,4,4,6,7,7,6,3,1,1,1,2,2,1,1,0,0,0,1,3,2,0,2,3,2,2,3,4,4,6,6,6,6,6,6,6,6,8,7,4,7,8,6,4,4,7,9,6,6,6,6,8,8,4,4,5,7,6,6,7,5,2,2,3,4,3,2,0,1,0,1,0,0,3,3,0,0,0,0,0,0,0,1,2,2,1,0,0,0,0,0,0,0,3,3,0,0,0,0,0,0,1,1,1,1,1,1,1,1,2,2,1,1,1,1,0,0,2,3,1,1,1,1,0,1,0,2,3,3,3,3,3,3,1,2,2,4,6,6,3,2,1,1,1,1,2,2,1,1,1,1,3,2,3,3,0,1,4,6,2,3,4,3,3,3,0,0,2,3,1,0,1,1,3,2,3,3,3,2,0,0,2,3,1,0,0,2,3,1,1,1,4,4,4,4,7,8,5,2,3,1,0,0,0,0,0,0,3,3,0,0,0,0,2,2,2,4,4,4,3,3,4,4,3,2,3,1,1,1,2,2,2,1,0,2,3,1,2,3,1,3,2,0,0,0,0,1,3,2,3,3,2,3,1,0,1,2,2,2,2,1,0,0,1,2,2,1,1,1,2,4,2,1,2,2,2,2,3,5,0,0,0,0,0,0,0,0,1,2,2,1,0,0,3,3,0,0,1,3,6,4,3,3,7,7,4,2,1,3,1,2,2,1,1,3,4,4,6,4,6,9,12,11,10,7,9,15,6,5,-1,-1,-1,-1,-1,-1,-1,-1,-1,-1,-1,-1,-1,-1,-1,-1,-1,-1,-1,-1,-1,-1,-1,-1
-1,-1,-1,-1,-1,-1,-1,-1,-1,-1,-1,-1,-1,-1,-1,-1,-1,-1,-1,-1,-1,-1,-1,-1,-1,-1,-1,-1,-1,-1,-1,-1,-1,-1,-1,-1,-1,-1,6,13,4,0,0,1,3,2,0,0,0,0,0,0,0,1,1,3,2,0,0,1,1,2,2,1,2,3,1,0,3,6,8,7,4,6,7,7,6,8,8,7,8,7,8,6,6,6,6,7,9,7,9,6,6,6,5,4,2,2,2,2,2,1,2,4,2,1,1,1,1,3,2,1,1,3,2,1,3,6,6,6,6,6,6,6,6,6,6,8,6,7,8,8,7,4,4,8,8,6,6,6,8,8,8,4,5,8,7,4,6,7,7,5,2,6,4,4,3,0,0,0,0,0,1,3,2,0,0,0,0,0,0,1,2,2,1,0,0,0,0,0,0,0,0,3,3,0,0,0,0,0,0,2,3,1,1,1,1,1,1,1,1,1,1,0,0,0,0,1,1,1,1,2,2,1,1,0,1,3,3,3,2,3,1,3,2,2,3,6,6,4,2,1,2,1,1,1,1,0,0,0,2,3,1,2,3,1,0,5,4,2,3,4,3,3,3,0,0,1,2,2,1,2,3,1,1,3,3,3,1,0,0,1,2,2,1,0,1,2,2,2,2,4,4,4,4,5,5,4,2,2,2,1,0,0,0,0,0,2,3,1,0,0,0,0,1,2,3,4,3,3,3,3,3,3,2,3,2,0,0,3,3,3,2,0,1,3,2,1,1,1,1,1,0,0,0,0,0,3,2,3,3,2,3,0,0,2,3,1,1,2,2,1,1,0,1,3,2,0,0,3,3,3,2,1,1,1,1,3,2,0,0,0,0,0,0,0,0,0,1,3,2,0,0,2,3,1,1,2,3,4,4,6,4,8,8,4,3,3,4,2,4,5,2,1,3,4,4,7,8,6,7,10,11,12,6,11,5,11,21,-1,-1,-1,-1,-1,-1,-1,-1,-1,-1,-1,-1,-1,-1,-1,-1,-1,-1,-1,-1,-1,-1,-1,-1
-1,-1,-1,-1,-1,-1,-1,-1,-1,-1,-1,-1,-1,-1,-1,-1,-1,-1,-1,-1,-1,-1,-1,-1,-1,-1,-1,-1,-1,-1,-1,-1,-1,-1,-1,-1,-1,-1,10,11,2,0,1,2,2,1,0,0,0,0,0,1,1,2,2,1,1,0,0,2,3,1,1,0,1,3,2,0,3,7,8,6,4,7,8,6,6,8,7,8,8,8,8,4,4,4,4,8,8,8,8,4,4,7,8,5,1,1,1,1,1,2,2,6,7,1,2,2,1,2,2,2,2,3,3,1,1,6,7,6,6,4,4,4,4,6,6,4,4,4,7,8,7,6,4,9,7,7,7,6,7,9,7,6,3,7,8,6,6,5,6,6,4,3,3,3,2,0,1,1,1,1,2,2,1,0,0,0,0,0,0,2,3,1,0,0,0,0,0,0,1,1,1,3,2,0,0,0,0,0,0,3,3,0,0,0,0,0,0,1,4,4,1,0,0,0,0,0,0,0,0,1,1,2,2,1,1,2,3,2,2,2,2,2,5,1,4,4,4,4,3,1,0,0,0,0,0,0,0,0,3,3,0,1,2,2,1,3,4,3,2,3,3,3,3,1,1,1,1,2,2,2,3,1,1,3,3,3,1,0,0,0,1,2,2,1,0,1,1,1,3,4,4,3,4,7,7,6,5,1,3,2,0,0,0,0,0,1,3,2,0,0,1,2,2,1,3,3,3,2,3,2,3,2,3,2,3,1,1,3,2,2,3,1,0,2,3,1,0,0,0,0,0,0,0,1,0,2,2,2,2,2,2,0,1,3,3,0,0,1,1,2,2,1,1,3,2,0,0,3,3,3,3,0,1,2,2,1,1,0,0,0,0,0,0,0,0,0,0,2,3,1,0,1,1,2,2,3,3,4,4,7,7,7,8,6,4,4,4,3,0,2,3,1,1,2,4,8,9,4,8,9,11,12,6,5,5,12,11,-1,-1,-1,-1,-1,-1,-1,-1,-1,-1,-1,-1,-1,-1,-1,-1,-1,-1,-1,-1,-1,-1,-1,-1
-1,-1,-1,-1,-1,-1,-1,-1,-1,-1,-1,-1,-1,-1,-1,-1,-1,-1,-1,-1,-1,-1,-1,-1,-1,-1,-1,-1,-1,-1,-1,-1,-1,-1,-1,-1,-1,-1,19,10,2,1,2,2,1,0,0,0,0,0,0,2,3,1,1,0,0,0,0,2,3,1,1,0,0,2,3,1,3,8,8,4,4,8,8,6,7,7,6,7,8,8,8,4,4,6,6,8,7,8,8,4,4,8,8,3,0,0,0,0,1,3,2,7,6,0,1,1,2,2,2,2,1,3,2,2,1,4,6,6,7,7,7,5,3,5,8,6,3,6,9,8,7,6,3,7,9,6,6,4,8,9,8,7,4,5,5,6,7,7,6,7,8,5,3,3,1,0,2,5,6,1,1,1,0,0,0,0,0,0,1,3,2,0,0,0,0,0,0,1,2,2,1,1,1,0,0,0,0,0,0,3,3,0,0,0,0,0,0,1,1,1,1,0,0,0,0,0,0,0,0,0,0,1,2,3,1,1,2,2,2,2,1,5,2,2,3,4,3,4,3,2,3,1,1,1,1,1,0,1,3,2,0,0,1,2,2,2,4,2,2,2,3,4,1,2,1,2,2,2,2,3,3,2,1,3,2,3,2,0,0,0,0,1,3,2,0,0,0,0,3,4,3,2,3,5,5,6,3,2,3,3,0,0,0,0,0,0,2,3,1,1,2,2,1,2,2,3,3,1,2,2,2,2,2,2,1,1,1,1,1,1,3,2,0,1,2,2,1,0,0,0,0,0,0,2,2,2,0,1,1,0,2,2,2,2,3,1,0,0,0,1,1,1,1,1,1,0,0,3,3,3,3,0,2,3,1,0,0,0,0,0,0,0,0,0,0,0,0,1,2,2,1,1,0,1,0,1,5,6,4,8,8,4,6,4,2,4,4,4,5,2,1,1,1,1,4,12,10,6,9,10,12,9,6,5,7,10,4,-1,-1,-1,-1,-1,-1,-1,-1,-1,-1,-1,-1,-1,-1,-1,-1,-1,-1,-1,-1,-1,-1,-1,-1
-1,-1,-1,-1,-1,-1,-1,-1,-1,-1,-1,-1,-1,-1,-1,-1,-1,-1,-1,-1,-1,-1,-1,-1,-1,-1,-1,-1,-1,-1,-1,-1,-1,-1,-1,-1,-1,-1,6,14,2,2,3,1,0,0,0,0,0,0,1,3,2,0,0,0,0,0,0,1,1,2,2,1,1,1,1,3,4,8,8,4,4,8,9,8,6,6,4,7,8,9,8,4,4,7,8,5,5,8,7,4,6,8,7,3,0,1,1,1,1,0,1,3,3,1,1,1,1,1,3,3,0,2,3,1,3,4,4,3,6,8,5,3,5,7,7,7,4,6,8,9,7,7,4,7,7,4,4,4,8,8,8,7,4,7,8,6,6,6,5,9,10,3,4,5,1,0,2,6,6,0,0,0,0,0,0,0,0,1,2,2,1,0,0,0,0,0,0,2,3,1,0,0,0,0,0,0,0,0,0,3,3,0,0,0,0,0,0,0,0,0,0,0,0,0,1,0,1,0,0,0,1,1,2,2,1,1,1,3,2,2,2,2,5,1,4,3,2,3,2,3,2,1,1,1,2,2,1,2,2,1,0,0,0,1,1,5,3,2,2,3,3,3,3,1,1,1,1,1,5,4,3,3,1,2,3,2,3,1,1,1,1,1,3,2,0,0,0,0,2,3,3,2,5,7,7,6,4,3,3,3,1,0,0,0,0,0,1,3,2,2,3,2,3,1,1,2,3,1,1,3,2,2,2,2,2,1,0,0,0,0,2,3,1,0,1,3,2,0,0,0,1,1,1,3,2,3,0,0,0,0,3,2,3,1,2,2,1,0,0,0,0,0,0,0,0,0,0,2,3,3,2,0,2,3,1,0,0,0,0,0,0,0,0,0,0,0,0,0,1,1,2,2,1,1,2,2,3,4,4,8,7,3,4,3,0,3,3,5,3,2,1,1,4,5,6,12,10,7,9,10,10,9,4,5,20,16,9,-1,-1,-1,-1,-1,-1,-1,-1,-1,-1,-1,-1,-1,-1,-1,-1,-1,-1,-1,-1,-1,-1,-1,-1
-1,-1,-1,-1,-1,-1,-1,-1,-1,-1,-1,-1,-1,-1,-1,-1,-1,-1,-1,-1,-1,-1,-1,-1,-1,-1,-1,-1,-1,-1,-1,-1,-1,-1,-1,-1,-1,-1,2,2,1,3,3,1,1,1,1,0,0,0,2,3,1,0,1,1,1,1,0,0,0,1,1,3,2,0,0,3,4,8,9,7,3,8,9,8,4,4,4,7,8,8,8,6,6,8,7,7,8,5,5,6,7,7,5,3,1,2,2,3,2,2,3,1,1,2,3,1,1,1,3,2,1,3,3,3,2,6,6,3,3,6,6,4,4,4,4,4,4,6,9,8,7,5,3,6,5,6,6,6,8,7,8,8,4,8,8,4,4,6,7,8,6,4,6,4,3,1,1,3,5,0,0,0,0,0,0,0,1,2,2,1,0,0,0,0,0,0,0,3,3,0,0,0,0,0,0,0,0,0,0,3,3,0,0,0,0,0,0,0,0,1,1,1,1,1,2,2,2,0,0,1,2,2,1,2,2,2,1,2,3,1,1,5,2,3,3,3,3,2,2,2,1,2,2,1,1,1,1,1,1,0,0,0,0,0,0,2,3,1,5,3,2,4,2,1,1,1,1,2,3,6,4,1,2,2,3,2,1,1,1,3,2,2,3,1,0,0,1,0,1,3,3,3,3,6,6,8,6,3,3,3,2,0,0,0,0,0,0,3,3,3,3,3,3,0,0,1,1,2,2,2,5,1,3,2,2,2,1,1,1,0,1,3,2,0,0,3,3,0,0,0,2,3,1,1,3,3,0,0,0,0,3,3,1,3,2,3,2,0,0,0,0,0,1,1,1,1,1,1,1,1,1,0,1,3,2,0,0,0,0,0,0,0,0,0,0,0,0,0,0,0,1,6,5,1,2,2,4,6,4,7,7,1,2,3,1,3,2,3,3,3,2,0,1,5,6,9,7,9,10,10,9,7,4,7,10,6,13,-1,-1,-1,-1,-1,-1,-1,-1,-1,-1,-1,-1,-1,-1,-1,-1,-1,-1,-1,-1,-1,-1,-1,-1
-1,-1,-1,-1,-1,-1,-1,-1,-1,-1,-1,-1,-1,-1,-1,-1,-1,-1,-1,-1,-1,-1,-1,-1,-1,-1,-1,-1,-1,-1,-1,-1,-1,-1,-1,-1,-1,-1,7,3,5,3,2,1,4,4,1,0,0,0,2,3,1,0,1,4,4,1,0,0,0,0,0,3,3,0,1,5,6,8,8,7,4,8,8,8,6,6,6,7,7,8,9,8,7,6,6,9,8,7,8,6,5,6,6,5,3,2,1,3,2,3,2,0,1,3,2,1,1,1,2,1,2,2,4,2,3,6,8,6,5,8,8,7,6,6,5,3,7,10,9,8,8,5,4,7,6,6,4,4,6,6,8,7,6,8,7,4,4,7,8,4,7,10,7,6,3,2,1,3,2,0,0,0,0,0,0,1,2,2,1,0,0,0,0,1,1,1,1,3,2,0,0,0,0,0,0,0,1,1,1,3,2,0,0,1,1,1,1,1,1,2,5,2,2,2,1,2,3,1,1,2,2,1,0,2,4,3,1,1,2,2,1,3,3,2,3,2,4,5,2,3,3,1,1,1,2,2,1,1,0,0,1,1,1,1,0,1,2,2,2,3,2,3,5,1,1,1,1,0,3,4,4,3,2,3,3,3,1,1,1,3,2,3,3,0,0,0,1,2,1,3,3,3,6,6,4,7,7,2,5,3,3,1,1,1,1,0,0,3,3,3,3,1,4,2,2,1,1,1,1,5,4,2,2,3,1,1,2,3,1,0,0,3,3,0,0,1,3,2,1,0,2,3,1,1,3,2,0,0,0,0,2,3,1,3,3,3,3,0,1,0,1,0,1,4,2,2,2,4,1,0,0,0,1,3,2,0,0,0,0,0,0,0,0,0,0,0,0,1,1,1,1,6,6,1,2,5,7,7,6,6,5,0,1,1,1,1,1,2,6,4,3,2,2,4,6,6,6,8,9,9,9,6,4,12,14,1,4,-1,-1,-1,-1,-1,-1,-1,-1,-1,-1,-1,-1,-1,-1,-1,-1,-1,-1,-1,-1,-1,-1,-1,-1
-1,-1,-1,-1,-1,-1,-1,-1,-1,-1,-1,-1,-1,-1,-1,-1,-1,-1,-1,-1,-1,-1,-1,-1,-1,-1,-1,-1,-1,-1,-1,-1,-1,-1,-1,-1,-1,-1,6,4,4,2,2,1,1,1,1,0,0,0,1,3,2,0,1,1,1,1,0,0,0,0,0,3,3,0,2,4,6,6,5,4,6,8,7,6,8,7,5,7,7,9,8,7,7,6,4,10,11,7,8,7,8,6,4,2,5,1,3,2,2,3,1,0,2,3,2,3,3,2,2,2,2,3,4,3,1,6,4,4,8,10,8,7,6,7,9,9,6,11,10,8,9,8,7,8,6,7,8,3,4,6,5,7,7,6,5,4,6,8,7,4,5,8,7,4,3,3,3,3,1,0,0,0,0,0,0,2,3,1,0,0,0,0,0,2,3,1,1,1,1,0,0,0,0,0,0,1,2,2,1,1,1,0,0,2,3,1,1,1,1,3,2,1,3,2,0,1,1,1,1,1,1,0,0,1,1,1,1,0,1,3,2,2,3,1,1,3,3,2,4,6,3,2,2,1,1,1,2,2,1,0,2,3,3,2,0,0,1,3,2,3,2,5,2,1,1,3,2,1,4,6,6,4,3,3,2,3,2,2,3,1,1,3,3,0,0,0,1,0,1,2,3,3,5,8,6,3,3,5,4,3,3,2,4,4,1,0,0,2,3,3,3,1,4,5,5,3,3,2,2,3,3,3,1,2,2,1,1,3,2,1,0,2,3,1,0,1,4,3,2,1,1,2,3,0,3,2,1,0,0,0,1,2,2,3,2,3,2,0,1,2,1,0,1,1,1,1,1,1,1,0,0,0,2,3,1,1,1,1,1,1,0,0,0,0,0,0,0,1,3,2,1,2,2,5,4,4,6,6,4,4,3,0,0,0,0,0,1,4,6,7,7,5,3,4,4,3,6,8,9,8,7,6,6,12,8,3,4,7,-1,-1,-1,-1,-1,-1,-1,-1,-1,-1,-1,-1,-1,-1,-1,-1,-1,-1,-1,-1,-1,-1,-1
-1,-1,-1,-1,-1,-1,-1,-1,-1,-1,-1,-1,-1,-1,-1,-1,-1,-1,-1,-1,-1,-1,-1,-1,-1,-1,-1,-1,-1,-1,-1,-1,-1,-1,-1,-1,-1,-1,1,8,2,1,1,2,2,1,1,1,1,0,0,3,3,0,0,0,0,0,0,0,0,0,0,3,3,0,3,4,4,4,4,4,5,8,7,4,7,8,5,4,8,9,8,6,8,7,4,12,11,7,8,8,8,4,3,3,3,1,3,2,2,3,1,0,3,3,3,3,3,3,3,2,3,3,4,3,0,3,3,0,3,4,6,6,7,8,9,6,6,7,7,6,7,8,5,6,4,7,8,5,3,6,7,7,6,4,5,7,6,8,6,7,8,7,8,4,3,4,4,3,0,0,0,0,0,0,0,3,3,0,0,0,0,0,0,3,3,0,0,0,0,0,0,0,0,0,0,2,3,1,0,0,0,0,0,3,3,0,0,0,0,1,3,2,3,3,0,0,0,0,0,0,1,1,1,1,1,1,1,1,1,3,3,1,1,2,2,1,2,2,1,6,6,1,1,2,2,1,1,3,2,0,3,3,3,3,0,0,0,3,3,3,3,2,3,1,1,3,2,1,0,3,4,4,3,3,2,3,3,3,3,0,1,3,2,0,0,0,0,0,0,1,3,4,6,6,3,2,2,3,6,4,2,2,1,1,1,0,0,1,3,3,3,2,2,2,2,3,2,2,1,1,1,2,2,1,3,2,1,1,2,2,1,1,2,2,1,3,2,3,2,2,1,3,2,1,1,2,2,1,0,0,0,1,1,1,2,2,1,0,1,0,1,0,0,0,0,0,0,0,0,0,0,0,3,3,0,2,3,1,2,2,1,0,0,0,0,0,0,1,3,2,0,3,3,3,4,4,4,4,3,2,2,1,1,1,0,0,1,0,3,8,8,4,4,4,3,3,6,9,9,7,6,8,7,7,8,6,4,6,-1,-1,-1,-1,-1,-1,-1,-1,-1,-1,-1,-1,-1,-1,-1,-1,-1,-1,-1,-1,-1,-1,-1
-1,-1,-1,-1,-1,-1,-1,-1,-1,-1,-1,-1,-1,-1,-1,-1,-1,-1,-1,-1,-1,-1,-1,-1,-1,-1,-1,-1,-1,-1,-1,-1,-1,-1,-1,-1,-1,-1,15,16,2,0,0,1,1,1,1,3,2,0,1,3,2,0,0,0,0,0,0,0,0,0,0,2,3,1,3,4,4,6,4,7,7,8,8,4,6,8,7,4,8,9,8,6,7,8,6,10,11,7,8,8,8,4,3,3,3,0,3,3,1,3,2,1,3,2,2,3,3,2,2,2,2,3,4,3,0,3,3,0,3,3,3,3,4,8,9,7,6,7,5,6,8,7,7,6,6,7,5,4,4,7,8,6,4,4,7,6,8,7,6,7,7,8,8,4,4,4,4,3,0,0,0,0,0,0,0,3,3,0,0,0,0,0,1,3,2,0,0,0,0,0,0,0,0,0,1,3,2,0,0,0,0,0,0,2,3,1,0,0,0,0,3,3,3,3,0,0,0,1,1,1,2,2,1,1,1,1,1,2,2,2,3,1,1,1,1,3,2,2,2,4,4,2,2,1,1,3,2,2,3,1,2,3,3,2,0,0,0,2,3,2,3,1,2,2,2,3,1,0,1,3,4,4,3,3,3,3,3,3,3,0,2,3,1,0,0,0,0,0,0,0,3,4,4,6,5,3,3,5,6,4,2,3,2,0,0,0,0,0,2,3,2,2,1,1,0,2,3,3,2,0,0,2,3,1,3,3,0,0,1,3,2,0,1,3,2,3,2,3,1,1,1,2,3,2,3,1,3,2,1,1,1,1,1,2,3,1,0,0,0,1,1,1,1,1,0,0,0,0,0,0,0,0,3,3,0,3,3,1,2,3,1,0,0,0,0,0,0,0,3,3,0,6,7,3,4,4,4,4,5,2,2,2,3,1,0,1,1,1,6,11,9,5,4,3,2,4,6,8,9,8,4,7,8,5,7,6,3,6,-1,-1,-1,-1,-1,-1,-1,-1,-1,-1,-1,-1,-1,-1,-1,-1,-1,-1,-1,-1,-1,-1,-1
-1,-1,-1,-1,-1,-1,-1,-1,-1,-1,-1,-1,-1,-1,-1,-1,-1,-1,-1,-1,-1,-1,-1,-1,-1,-1,-1,-1,-1,-1,-1,-1,-1,-1,-1,-1,-1,16,26,8,2,0,0,0,1,1,1,2,2,1,2,2,1,0,0,0,0,0,0,0,0,0,0,1,3,2,3,3,5,7,6,7,8,7,8,6,4,8,8,4,7,8,7,7,5,8,7,9,8,7,8,7,8,6,5,3,3,0,3,3,0,3,3,2,3,1,1,1,1,1,1,0,1,3,4,3,0,3,3,1,3,2,1,2,6,10,10,7,4,5,7,7,5,7,7,6,6,8,7,4,4,8,8,4,4,6,7,7,6,5,7,6,7,9,8,7,7,6,6,3,0,0,0,0,0,0,0,3,3,0,0,0,1,1,2,2,1,0,0,0,0,0,0,0,1,1,2,2,1,0,0,0,0,0,0,1,2,2,1,1,1,1,3,2,3,2,0,1,1,2,2,1,1,1,1,1,1,1,1,1,2,2,2,2,2,2,2,2,3,1,1,6,6,1,2,2,1,2,3,1,2,2,1,1,1,1,0,1,0,1,2,2,1,2,2,3,4,3,2,1,1,2,3,4,3,3,3,3,3,2,3,1,2,3,1,0,0,0,0,0,0,0,2,3,4,6,2,7,6,3,4,4,3,3,2,0,1,1,1,1,1,3,2,2,2,3,2,3,4,4,5,1,0,2,3,1,3,3,0,0,1,3,2,0,1,3,2,3,2,3,1,1,2,2,2,4,2,3,4,3,2,3,1,3,2,2,3,1,0,0,0,2,3,1,2,2,1,1,0,0,0,0,0,0,3,3,0,2,3,2,2,1,1,1,1,1,1,1,1,1,3,2,1,8,7,3,6,6,5,2,3,2,3,2,2,1,1,2,2,1,6,8,9,6,3,2,2,7,8,8,9,8,4,6,6,7,7,4,5,7,-1,-1,-1,-1,-1,-1,-1,-1,-1,-1,-1,-1,-1,-1,-1,-1,-1,-1,-1,-1,-1,-1,-1
-1,-1,-1,-1,-1,-1,-1,-1,-1,-1,-1,-1,-1,-1,-1,-1,-1,-1,-1,-1,-1,-1,-1,-1,-1,-1,-1,-1,-1,-1,-1,-1,-1,-1,-1,-1,-1,37,10,8,5,0,0,0,2,3,1,2,2,1,1,1,0,0,0,0,0,0,0,0,0,0,0,0,3,3,2,3,3,6,4,7,8,5,7,7,6,7,8,6,5,7,7,5,7,8,9,7,9,5,7,7,5,6,3,2,2,1,3,2,1,3,2,3,3,0,0,0,0,0,0,0,0,3,4,3,0,3,3,1,3,2,0,0,3,6,8,6,5,8,7,6,7,7,5,8,7,7,8,6,4,8,8,4,4,7,8,6,6,7,7,4,7,9,9,8,5,7,7,5,1,0,0,0,0,0,0,3,3,0,0,1,2,2,1,1,0,0,0,0,0,0,0,1,2,2,1,1,0,0,0,0,0,0,0,0,1,1,1,2,2,2,2,2,2,1,1,2,2,1,1,1,1,2,2,1,1,1,1,2,2,1,3,2,1,1,2,2,2,2,1,3,4,2,2,2,3,1,2,2,1,2,3,1,1,1,1,2,4,1,1,3,2,1,1,7,7,4,5,2,0,1,3,4,3,3,3,3,3,1,1,3,2,3,2,0,0,0,0,0,0,0,2,3,4,4,3,7,7,3,4,4,4,3,2,1,2,2,1,2,2,2,3,1,1,2,3,3,4,4,4,3,1,2,3,1,3,3,0,0,1,3,2,1,1,3,2,3,3,1,1,1,1,1,2,2,2,3,4,3,2,3,1,3,3,1,3,2,0,0,0,5,3,1,1,1,2,2,1,0,0,0,0,0,3,3,0,1,1,1,1,1,1,2,2,1,1,2,2,2,2,3,2,6,7,4,4,4,3,1,2,2,1,1,1,1,2,2,2,7,7,8,7,4,3,1,1,11,10,8,9,8,6,6,6,6,7,6,2,6,-1,-1,-1,-1,-1,-1,-1,-1,-1,-1,-1,-1,-1,-1,-1,-1,-1,-1,-1,-1,-1,-1,-1
-1,-1,-1,-1,-1,-1,-1,-1,-1,-1,-1,-1,-1,-1,-1,-1,-1,-1,-1,-1,-1,-1,-1,-1,-1,-1,-1,-1,-1,-1,-1,-1,-1,-1,-1,-1,-1,18,5,9,5,0,0,0,2,3,1,3,2,0,0,0,0,0,0,0,0,0,0,0,0,0,0,0,3,3,1,3,4,4,4,6,5,8,7,6,7,7,5,7,7,5,5,7,7,9,7,9,7,7,7,7,7,6,5,1,1,2,2,1,2,2,1,3,2,0,0,0,0,0,0,0,0,3,4,3,0,3,3,1,3,2,1,1,3,3,4,5,3,7,8,6,6,8,7,8,8,6,8,7,4,7,8,6,4,7,8,6,7,8,6,4,6,9,9,7,7,7,5,4,2,0,0,0,0,0,0,3,3,0,0,2,3,1,0,0,0,0,0,0,0,0,0,2,3,1,0,0,0,0,0,0,0,0,0,0,0,0,0,1,1,1,2,2,1,2,2,1,1,1,2,2,1,1,1,0,0,0,0,0,1,2,2,1,0,2,3,2,3,1,0,3,4,3,1,3,3,2,2,1,1,3,2,1,2,1,2,3,2,1,1,5,2,1,1,6,6,4,4,2,1,1,2,3,3,4,3,3,2,0,0,3,3,2,3,1,1,1,1,1,1,1,2,2,3,3,3,7,7,3,4,4,3,2,2,2,5,1,0,1,2,2,1,2,1,2,1,2,5,6,4,3,3,1,2,2,2,5,1,1,1,1,2,2,1,1,2,2,2,0,0,0,0,0,1,0,1,3,3,3,2,2,2,3,2,1,3,2,0,0,0,6,6,2,1,1,1,3,2,0,0,0,0,0,3,3,0,0,0,0,0,1,3,2,1,1,1,1,1,1,2,3,5,4,4,3,4,4,2,1,1,3,2,0,1,3,3,5,4,7,8,6,6,5,1,3,2,10,10,7,8,5,6,7,6,6,7,4,3,4,-1,-1,-1,-1,-1,-1,-1,-1,-1,-1,-1,-1,-1,-1,-1,-1,-1,-1,-1,-1,-1,-1,-1
-1,-1,-1,-1,-1,-1,-1,-1,-1,-1,-1,-1,-1,-1,-1,-1,-1,-1,-1,-1,-1,-1,-1,-1,-1,-1,-1,-1,-1,-1,-1,-1,-1,-1,-1,-1,-1,22,8,17,3,1,1,1,1,1,1,1,1,0,0,0,0,0,0,0,0,0,0,0,0,0,0,0,3,3,0,3,4,4,3,7,7,8,8,4,6,8,7,6,6,7,7,5,7,8,9,7,8,5,7,7,5,6,2,6,6,1,1,2,2,1,2,2,1,0,0,0,0,0,0,0,0,3,4,3,0,3,3,1,2,6,5,1,1,1,3,2,3,7,8,5,4,8,8,8,8,6,8,7,4,6,8,6,7,8,8,5,8,8,6,6,8,9,8,7,7,7,7,6,5,0,0,0,0,0,0,3,3,0,1,3,2,0,0,0,0,0,0,0,0,0,0,3,3,0,0,0,0,0,0,0,0,0,0,0,0,0,0,0,1,2,2,1,2,2,1,2,2,1,1,1,0,0,0,1,0,1,1,2,1,2,1,0,1,3,2,3,3,0,1,3,4,3,1,3,3,3,1,1,2,2,2,2,1,0,1,0,0,0,0,2,3,1,0,1,3,4,4,2,2,3,2,3,4,4,4,3,1,0,0,2,3,1,1,2,2,2,2,1,1,1,1,1,3,3,3,6,4,3,6,4,2,2,1,7,6,0,0,0,1,3,2,1,0,1,1,2,2,3,2,5,2,2,2,1,3,2,1,1,2,2,1,1,1,2,2,1,0,0,0,0,0,1,1,1,1,3,3,3,3,1,1,1,1,2,2,1,1,1,1,7,6,1,3,2,0,3,3,0,0,0,0,0,3,3,0,0,0,0,0,1,2,2,1,2,5,2,2,2,3,4,3,3,4,4,4,3,3,2,2,2,3,1,2,3,6,6,6,6,6,5,3,3,2,4,6,4,7,8,7,8,6,6,6,6,7,6,1,3,-1,-1,-1,-1,-1,-1,-1,-1,-1,-1,-1,-1,-1,-1,-1,-1,-1,-1,-1,-1,-1,-1,-1
-1,-1,-1,-1,-1,-1,-1,-1,-1,-1,-1,-1,-1,-1,-1,-1,-1,-1,-1,-1,-1,-1,-1,-1,-1,-1,-1,-1,-1,-1,-1,-1,-1,-1,-1,-1,-1,12,16,13,3,2,4,1,0,1,1,1,1,0,0,0,0,0,0,0,0,0,0,0,0,0,0,0,2,3,1,2,4,6,6,6,8,7,9,6,6,7,8,6,6,6,6,7,7,8,8,8,5,7,7,7,8,7,5,4,7,2,2,2,1,1,3,2,1,1,1,1,0,0,0,1,1,5,4,2,1,5,2,2,5,8,4,0,0,0,1,2,5,7,7,6,6,7,9,7,8,7,8,7,4,6,8,7,6,7,7,5,8,8,8,6,7,9,9,6,7,8,7,7,7,1,1,1,0,0,0,2,3,1,2,5,2,1,1,1,0,0,0,1,1,1,1,3,2,0,0,0,0,0,1,0,1,0,0,1,1,1,1,1,2,2,1,2,2,1,1,3,2,0,0,0,0,0,0,2,2,2,2,5,4,4,4,4,4,2,1,3,2,1,2,2,3,2,2,2,3,2,1,3,2,2,2,2,4,2,2,2,1,1,1,1,2,2,1,2,2,3,3,1,0,2,3,3,6,4,4,5,1,1,0,1,3,2,0,1,1,1,1,0,0,0,0,1,3,2,2,4,4,4,6,4,2,3,2,6,7,1,1,1,0,3,3,0,0,1,2,2,2,2,1,3,2,1,1,2,2,1,3,2,0,1,1,2,2,1,1,2,3,1,1,1,1,2,2,5,2,2,3,3,3,1,1,1,2,3,3,5,2,2,2,3,5,1,3,2,0,2,3,1,1,1,1,1,2,3,1,1,0,1,0,0,1,1,1,5,6,2,2,4,3,3,4,6,4,3,4,5,1,1,2,2,1,1,1,6,9,5,3,3,3,3,3,2,5,8,8,6,8,8,10,5,4,6,6,4,7,9,3,4,-1,-1,-1,-1,-1,-1,-1,-1,-1,-1,-1,-1,-1,-1,-1,-1,-1,-1,-1,-1,-1,-1,-1
-1,-1,-1,-1,-1,-1,-1,-1,-1,-1,-1,-1,-1,-1,-1,-1,-1,-1,-1,-1,-1,-1,-1,-1,-1,-1,-1,-1,-1,-1,-1,-1,-1,-1,-1,-1,-1,6,8,0,2,1,1,1,0,2,3,3,2,0,0,0,0,0,0,0,0,0,0,0,0,0,0,0,1,2,3,1,2,8,5,6,6,9,7,6,7,7,5,8,7,4,4,6,7,7,8,8,8,5,5,7,8,5,4,3,6,6,5,2,0,1,2,1,2,1,2,2,1,1,1,2,2,2,5,2,3,2,5,2,1,3,3,0,0,0,0,1,3,4,3,6,7,11,9,8,8,7,8,7,6,7,7,5,7,7,7,7,5,9,7,8,7,8,7,6,7,8,5,8,7,1,2,2,1,1,1,1,1,1,5,2,1,1,2,2,1,0,0,2,3,1,1,1,1,0,0,0,0,1,2,2,2,0,1,2,2,1,1,1,1,1,2,2,1,1,2,3,1,0,0,0,0,0,0,2,4,2,4,4,4,4,4,5,1,1,0,1,1,2,2,3,3,2,2,2,2,1,2,3,5,1,1,1,1,1,1,2,2,2,2,1,1,1,0,0,1,2,2,2,4,2,2,7,6,3,3,2,3,2,0,1,3,2,0,0,0,0,0,0,0,0,0,2,3,1,1,5,4,4,4,4,3,2,3,4,3,1,3,2,1,3,2,0,0,2,3,2,3,1,1,3,2,1,1,1,2,2,2,2,2,1,2,2,1,1,1,5,2,1,3,2,2,3,1,4,6,3,3,4,3,1,4,4,2,1,5,2,1,2,3,3,2,2,1,1,0,1,1,1,1,2,3,1,1,3,2,1,2,1,0,0,0,0,0,2,5,4,2,2,3,4,3,6,8,2,3,2,0,0,1,4,5,1,3,7,9,8,2,1,3,4,3,2,3,7,9,7,8,8,7,6,4,7,7,6,17,7,14,11,-1,-1,-1,-1,-1,-1,-1,-1,-1,-1,-1,-1,-1,-1,-1,-1,-1,-1,-1,-1,-1,-1,-1
-1,-1,-1,-1,-1,-1,-1,-1,-1,-1,-1,-1,-1,-1,-1,-1,-1,-1,-1,-1,-1,-1,-1,-1,-1,-1,-1,-1,-1,-1,-1,-1,-1,-1,-1,-1,-1,7,6,3,0,0,0,0,0,3,3,3,3,0,0,0,0,0,0,0,0,0,0,0,0,0,0,1,0,2,3,1,0,7,8,4,4,7,8,6,6,7,7,7,8,6,6,6,5,7,7,8,7,7,8,6,6,6,4,4,4,5,4,2,1,1,1,0,1,0,1,1,1,1,1,1,1,3,2,3,2,3,2,1,2,2,1,1,1,1,1,1,3,3,3,2,4,7,9,7,8,6,8,8,7,8,6,7,8,7,7,5,7,8,9,7,9,5,7,7,6,5,5,8,6,2,2,1,2,1,2,3,2,0,3,3,0,0,1,3,2,0,0,3,3,0,0,0,0,0,0,0,1,2,2,3,3,1,2,2,1,0,0,1,1,2,2,1,1,2,2,1,1,0,0,0,0,0,0,1,1,1,1,1,1,1,1,1,1,0,0,0,0,1,1,6,6,1,2,3,2,3,1,2,3,1,1,1,0,0,0,2,3,2,1,2,1,1,1,2,2,1,1,1,1,1,2,3,4,2,2,2,3,5,1,1,3,2,0,0,0,0,0,0,0,0,0,2,3,1,0,3,4,4,4,4,5,1,2,4,5,0,3,3,2,2,1,0,0,3,3,2,3,1,1,0,1,0,0,2,3,2,3,1,0,0,1,2,2,1,0,3,3,0,3,3,2,3,1,5,3,2,2,3,2,1,1,1,1,0,3,3,1,2,2,1,0,1,0,0,0,0,0,1,1,2,2,1,0,3,3,1,0,1,1,0,1,0,0,0,3,4,4,3,2,3,4,7,6,2,2,1,0,0,0,5,3,1,7,8,8,4,0,1,3,4,4,3,4,9,7,8,7,6,6,4,4,6,7,10,17,8,27,20,-1,-1,-1,-1,-1,-1,-1,-1,-1,-1,-1,-1,-1,-1,-1,-1,-1,-1,-1,-1,-1,-1,-1
-1,-1,-1,-1,-1,-1,-1,-1,-1,-1,-1,-1,-1,-1,-1,-1,-1,-1,-1,-1,-1,-1,-1,-1,-1,-1,-1,-1,-1,-1,-1,-1,-1,-1,-1,-1,-1,7,6,3,0,0,0,0,0,3,3,2,3,1,0,0,0,0,0,0,0,0,0,0,0,0,0,2,2,2,2,0,0,6,8,6,6,5,7,7,6,5,7,7,5,6,6,6,7,7,7,7,5,8,7,4,4,4,4,4,6,7,6,1,1,3,2,0,0,0,0,0,0,1,1,1,2,2,2,3,2,3,1,2,2,1,1,2,2,2,2,1,3,3,3,2,5,8,7,8,8,6,8,7,8,8,6,9,8,7,7,8,5,8,7,9,8,7,7,6,4,7,8,6,6,3,3,2,1,0,1,3,3,0,2,3,1,0,0,3,3,0,0,3,3,0,0,0,0,0,0,1,2,2,1,2,2,2,1,1,0,0,0,2,3,1,1,1,2,2,1,0,0,0,0,0,0,0,0,1,1,1,1,1,1,1,1,1,1,0,0,0,0,0,0,3,3,1,3,2,3,3,0,1,1,1,2,2,1,0,0,1,1,1,3,2,0,1,1,1,1,1,0,0,0,1,3,2,2,2,2,2,4,3,2,1,2,2,1,1,0,0,0,0,0,0,0,1,3,2,0,3,4,4,3,4,4,2,1,7,6,0,2,2,2,1,0,0,0,2,3,1,2,2,1,2,3,1,1,3,2,5,2,2,2,1,1,1,3,2,0,2,3,1,2,3,1,2,2,2,2,2,2,2,1,0,0,0,0,0,3,3,2,3,1,0,0,0,0,0,1,1,1,2,2,1,1,0,0,3,3,0,0,1,2,2,2,0,1,1,5,6,6,3,2,4,4,6,4,2,1,1,0,1,0,2,3,3,8,8,6,3,2,2,3,6,6,3,4,7,8,5,7,7,6,4,4,4,5,7,16,5,10,-1,-1,-1,-1,-1,-1,-1,-1,-1,-1,-1,-1,-1,-1,-1,-1,-1,-1,-1,-1,-1,-1,-1,-1
-1,-1,-1,-1,-1,-1,-1,-1,-1,-1,-1,-1,-1,-1,-1,-1,-1,-1,-1,-1,-1,-1,-1,-1,-1,-1,-1,-1,-1,-1,-1,-1,-1,-1,-1,-1,-1,7,6,3,0,0,0,0,0,3,3,1,2,2,1,1,0,0,0,0,0,0,0,0,0,0,0,3,3,0,1,0,0,5,6,6,6,7,7,6,6,7,7,8,8,4,4,4,6,8,7,7,7,5,5,4,4,4,4,6,7,7,6,2,0,3,3,0,0,0,1,1,1,2,2,1,1,1,3,2,3,2,2,2,1,1,2,2,1,1,1,2,4,3,2,1,3,6,6,8,7,7,7,5,8,7,7,8,9,5,8,7,7,8,5,10,11,6,5,4,6,8,7,6,6,4,4,3,0,0,0,3,3,0,1,3,2,0,0,3,3,0,0,3,3,0,0,0,0,0,0,2,3,1,0,1,0,1,0,0,1,1,1,3,2,0,1,2,2,1,0,0,0,0,0,0,0,0,0,2,3,1,1,1,1,1,1,2,2,1,1,1,1,1,1,1,1,2,2,1,3,3,0,0,1,1,2,3,1,0,0,0,0,1,3,2,1,2,2,2,2,2,1,0,0,1,3,2,1,2,2,3,3,3,2,2,1,1,2,2,1,1,1,0,0,0,1,1,3,2,0,3,4,3,3,3,4,5,1,7,7,0,1,0,1,0,0,0,0,1,3,2,1,2,2,3,2,0,0,1,3,4,3,0,1,1,2,2,2,3,1,1,2,2,1,2,2,1,2,2,1,2,3,1,0,1,1,1,1,1,3,2,3,3,0,0,0,0,1,1,2,2,1,1,1,0,0,0,0,3,3,0,0,1,3,4,2,1,2,2,3,4,4,3,3,4,4,4,3,1,1,1,2,1,0,2,5,8,8,8,6,5,2,3,3,7,8,4,6,7,6,7,8,7,8,6,4,6,5,10,9,1,9,-1,-1,-1,-1,-1,-1,-1,-1,-1,-1,-1,-1,-1,-1,-1,-1,-1,-1,-1,-1,-1,-1,-1,-1
-1,-1,-1,-1,-1,-1,-1,-1,-1,-1,-1,-1,-1,-1,-1,-1,-1,-1,-1,-1,-1,-1,-1,-1,-1,-1,-1,-1,-1,-1,-1,-1,-1,-1,-1,-1,-1,7,6,3,0,0,0,0,0,3,3,0,1,1,2,2,1,0,0,0,0,0,0,0,0,0,0,3,3,0,0,0,0,3,4,4,4,5,7,6,6,7,6,10,12,6,6,6,6,7,9,6,6,7,8,5,3,6,6,7,7,7,8,5,1,2,3,1,1,1,2,2,1,1,1,1,1,2,2,2,2,2,2,1,1,2,2,1,0,0,1,0,2,3,2,1,2,4,4,6,7,7,7,8,5,7,7,8,8,7,8,5,8,7,7,9,9,6,7,6,6,7,6,7,8,6,6,5,0,0,0,3,3,0,0,2,3,1,0,3,3,0,0,3,3,0,0,0,0,0,1,3,2,0,0,0,0,0,1,1,2,2,1,1,1,0,2,3,1,0,0,0,0,0,0,0,0,0,0,3,3,0,0,0,0,0,0,1,1,1,1,1,1,1,1,2,2,1,1,1,3,2,0,1,2,2,1,1,1,0,0,0,1,2,2,2,3,1,2,2,2,2,2,1,0,1,3,2,0,2,3,4,3,2,2,2,2,1,1,1,1,2,2,1,1,1,2,2,1,1,0,3,3,3,3,3,4,4,2,6,7,1,1,0,0,0,0,0,0,0,2,3,1,1,1,1,1,0,0,0,3,4,3,2,1,2,1,2,2,1,2,2,1,2,2,1,3,2,1,3,2,2,3,1,1,2,2,2,2,2,2,1,3,3,0,1,1,1,2,2,1,1,0,1,1,1,1,0,0,3,3,0,0,1,1,1,2,2,1,3,4,4,4,3,2,4,6,5,1,0,1,2,1,1,1,3,4,8,8,4,3,3,1,2,4,9,7,4,6,6,6,9,7,9,8,6,4,7,7,2,6,7,9,-1,-1,-1,-1,-1,-1,-1,-1,-1,-1,-1,-1,-1,-1,-1,-1,-1,-1,-1,-1,-1,-1,-1,-1
-1,-1,-1,-1,-1,-1,-1,-1,-1,-1,-1,-1,-1,-1,-1,-1,-1,-1,-1,-1,-1,-1,-1,-1,-1,-1,-1,-1,-1,-1,-1,-1,-1,-1,-1,-1,-1,7,6,3,0,0,0,0,0,3,3,0,0,0,1,3,2,0,0,0,0,0,0,0,0,0,0,5,3,1,0,0,0,3,4,3,6,7,5,4,4,5,6,12,10,4,4,4,4,8,8,4,4,8,8,3,5,7,7,6,6,8,8,3,2,3,2,2,2,2,1,1,1,2,2,1,1,1,2,3,2,2,1,2,2,1,1,0,0,1,2,2,1,2,2,1,0,2,4,6,6,6,8,8,7,8,6,8,8,8,7,7,7,7,8,8,8,7,8,6,4,5,6,8,7,6,7,6,1,0,0,3,3,0,0,1,3,2,0,3,3,0,0,3,3,0,0,0,0,1,2,2,1,0,0,0,1,1,2,2,1,1,0,0,0,0,2,3,1,0,0,0,0,0,0,0,0,0,0,3,3,0,0,0,0,0,0,0,0,0,0,0,0,0,0,1,1,1,2,2,1,1,1,2,2,1,0,0,1,1,1,1,2,2,1,3,3,1,3,2,1,1,2,3,1,2,2,1,1,2,2,3,3,1,2,2,1,1,2,2,1,1,1,1,1,1,1,1,1,1,1,3,2,2,3,3,4,4,3,3,3,2,2,1,0,0,0,0,0,0,1,1,2,2,1,1,1,0,0,0,2,3,1,1,1,1,3,2,3,2,1,3,2,1,3,2,2,3,1,2,3,1,1,2,1,2,1,1,1,1,1,0,2,3,1,2,2,1,1,1,0,0,0,2,3,3,2,0,0,3,3,0,0,0,0,2,3,3,2,3,4,4,4,3,1,3,4,3,0,0,1,0,1,1,2,4,6,7,8,5,1,3,2,1,3,8,8,4,4,4,4,8,8,8,8,4,4,4,4,4,1,6,6,-1,-1,-1,-1,-1,-1,-1,-1,-1,-1,-1,-1,-1,-1,-1,-1,-1,-1,-1,-1,-1,-1,-1,-1
-1,-1,-1,-1,-1,-1,-1,-1,-1,-1,-1,-1,-1,-1,-1,-1,-1,-1,-1,-1,-1,-1,-1,-1,-1,-1,-1,-1,-1,-1,-1,-1,-1,-1,-1,-1,-1,7,6,3,0,0,0,0,0,3,3,0,0,0,0,2,3,1,0,0,0,0,0,0,0,0,0,6,6,2,0,0,0,3,4,3,4,8,7,3,5,8,7,8,8,4,4,4,6,8,7,4,4,8,8,4,4,5,5,3,7,9,8,3,3,3,3,1,0,1,0,2,3,1,1,0,0,1,3,3,3,1,2,2,1,0,0,0,0,2,3,1,2,3,1,0,0,1,5,4,4,6,8,7,8,8,6,9,8,7,7,7,5,9,7,9,7,9,7,6,6,7,7,6,4,7,8,6,2,1,1,2,5,1,0,0,3,3,0,3,3,0,0,3,3,0,0,0,1,2,2,1,0,0,0,1,2,2,1,1,0,0,0,0,0,0,1,3,2,0,0,0,0,0,0,0,0,0,0,3,3,0,0,0,0,0,0,0,0,0,0,0,0,1,1,1,1,0,1,1,2,2,1,1,1,1,1,1,2,2,1,1,1,1,1,3,2,2,3,1,0,1,3,2,0,1,1,2,2,1,1,3,3,0,1,2,2,1,1,1,1,1,1,2,2,1,2,2,1,1,1,1,1,1,3,4,4,4,3,1,2,2,3,2,1,1,1,1,1,0,0,0,1,1,1,3,2,0,0,1,1,1,2,1,1,2,2,3,3,3,0,3,3,0,2,3,1,3,2,1,1,2,2,1,0,1,0,1,1,1,1,1,1,1,1,1,1,0,0,0,0,0,1,3,2,3,3,0,0,3,3,0,0,0,1,3,3,4,5,3,6,4,3,1,2,2,3,3,0,0,0,0,1,2,2,7,8,6,4,2,1,2,4,1,7,8,8,6,4,4,4,7,8,8,8,4,4,3,3,2,4,14,18,-1,-1,-1,-1,-1,-1,-1,-1,-1,-1,-1,-1,-1,-1,-1,-1,-1,-1,-1,-1,-1,-1,-1,-1
-1,-1,-1,-1,-1,-1,-1,-1,-1,-1,-1,-1,-1,-1,-1,-1,-1,-1,-1,-1,-1,-1,-1,-1,-1,-1,-1,-1,-1,-1,-1,-1,-1,-1,-1,-1,-1,10,5,6,3,0,0,0,0,2,3,1,1,1,1,1,2,2,1,0,0,0,0,0,0,0,0,6,6,2,0,0,0,2,3,4,4,7,8,5,3,8,8,6,4,6,6,4,7,8,7,6,4,8,7,4,4,5,8,6,4,8,7,4,3,4,3,2,1,1,0,2,3,1,2,1,2,3,2,3,2,2,3,1,1,1,1,1,1,3,2,1,3,2,0,0,1,1,3,3,5,7,7,5,8,7,7,8,9,7,8,8,7,8,8,7,8,7,9,7,6,5,7,6,4,8,8,7,3,2,2,6,5,1,0,0,2,3,1,2,3,1,0,2,3,1,1,1,2,2,1,0,0,0,0,2,3,1,0,0,0,0,0,1,1,1,1,3,2,0,0,0,0,0,0,1,1,1,1,3,2,0,0,0,0,0,0,0,0,0,0,0,0,1,4,4,1,0,0,0,1,1,1,1,1,2,2,1,1,1,0,0,0,0,2,3,1,1,3,2,1,1,3,2,1,0,0,1,0,1,0,3,3,0,0,2,2,4,1,0,0,0,0,0,0,1,0,1,0,0,0,0,0,0,3,4,4,6,5,1,1,2,3,5,2,5,2,4,1,0,0,0,0,0,0,2,3,1,1,1,4,2,2,1,2,3,2,2,3,5,2,3,6,1,1,2,2,2,5,2,2,1,2,2,1,1,1,1,2,2,2,2,2,1,1,0,0,0,0,0,1,1,2,2,1,3,3,0,0,2,3,1,1,0,2,3,4,7,3,7,6,3,2,2,1,1,3,2,0,0,1,1,5,4,5,11,7,4,5,1,4,6,7,4,7,8,8,5,4,4,6,7,8,8,8,6,5,2,3,2,10,9,6,-1,-1,-1,-1,-1,-1,-1,-1,-1,-1,-1,-1,-1,-1,-1,-1,-1,-1,-1,-1,-1,-1,-1,-1
-1,-1,-1,-1,-1,-1,-1,-1,-1,-1,-1,-1,-1,-1,-1,-1,-1,-1,-1,-1,-1,-1,-1,-1,-1,-1,-1,-1,-1,-1,-1,-1,-1,-1,-1,-1,-1,10,14,14,2,1,1,1,1,2,2,2,2,3,1,0,1,2,2,1,0,0,0,0,0,0,0,5,3,1,0,0,0,1,1,8,10,4,3,5,7,8,9,6,4,6,7,4,7,8,8,6,4,6,6,4,4,6,7,7,6,5,5,4,3,4,6,4,1,2,1,2,3,3,5,4,2,2,5,1,1,3,3,2,3,1,1,1,1,1,2,2,1,1,0,0,2,3,1,2,3,3,6,7,7,7,7,8,8,9,9,8,8,7,8,6,5,7,9,7,6,7,7,6,4,6,7,6,6,3,3,5,2,1,0,0,1,2,3,3,3,1,0,1,2,3,1,2,3,1,0,0,0,0,0,3,3,0,0,0,0,0,0,2,3,1,1,1,1,0,0,0,0,0,0,2,3,1,1,1,1,0,0,0,0,0,0,0,0,0,0,0,0,1,1,1,1,1,1,1,1,1,1,1,1,1,1,1,1,1,0,1,1,1,3,2,1,2,2,4,1,1,1,3,2,0,0,3,6,2,1,3,2,1,1,2,2,1,1,0,0,0,0,1,4,4,1,0,1,1,1,1,1,1,2,3,4,6,3,2,1,1,3,2,3,2,0,0,0,0,0,0,0,0,0,1,1,2,2,1,1,5,2,4,2,3,3,2,3,4,4,7,4,2,2,1,1,2,2,5,2,3,2,2,2,2,2,2,2,3,2,1,1,3,2,0,0,0,0,0,1,3,2,1,1,5,3,2,2,2,2,3,2,1,5,4,4,5,7,3,4,2,2,1,2,2,1,1,0,1,2,2,4,8,7,7,5,2,3,1,1,5,3,7,8,7,8,7,6,6,5,8,7,7,6,4,3,3,3,3,15,8,8,-1,-1,-1,-1,-1,-1,-1,-1,-1,-1,-1,-1,-1,-1,-1,-1,-1,-1,-1,-1,-1,-1,-1,-1
-1,-1,-1,-1,-1,-1,-1,-1,-1,-1,-1,-1,-1,-1,-1,-1,-1,-1,-1,-1,-1,-1,-1,-1,-1,-1,-1,-1,-1,-1,-1,-1,-1,-1,-1,-1,-1,26,6,8,2,1,1,1,1,1,1,2,1,2,1,0,0,1,2,2,1,0,0,0,0,0,0,3,3,0,0,0,0,0,0,7,8,4,5,3,6,8,7,4,4,4,6,4,4,8,8,4,4,4,4,4,4,4,7,8,6,7,8,5,3,4,4,3,0,1,1,2,2,3,2,1,1,3,2,0,1,3,2,3,3,0,0,0,1,2,2,1,0,0,0,0,2,3,1,1,2,2,6,7,7,7,6,8,9,9,10,9,7,8,5,6,7,7,7,8,6,5,7,7,6,6,6,4,4,4,4,3,0,0,0,0,1,2,2,2,3,1,0,0,2,3,1,3,3,0,0,0,0,1,1,3,2,0,0,0,0,1,1,3,2,0,0,0,0,0,0,0,0,0,1,3,2,0,0,0,0,0,0,0,0,0,0,0,0,0,0,0,0,0,0,2,3,1,1,1,1,1,1,2,2,1,1,1,2,2,1,2,2,1,1,1,2,2,1,1,1,0,0,3,3,0,0,5,3,1,0,1,1,2,2,1,1,0,0,0,0,0,0,0,0,1,1,1,2,2,1,1,2,2,1,2,3,6,5,1,2,2,1,2,3,1,1,3,2,0,0,0,0,0,0,0,0,1,2,2,1,1,2,2,2,3,3,2,3,1,3,4,4,2,2,2,1,1,1,2,5,2,3,1,1,1,1,2,3,3,2,0,1,3,2,0,0,0,0,0,1,2,2,1,2,4,6,3,1,5,4,3,2,2,3,4,4,6,4,3,3,1,1,2,2,1,0,0,0,2,3,3,6,6,4,3,3,1,1,1,3,3,3,11,12,5,6,6,7,7,5,4,4,7,7,3,3,3,3,4,7,29,11,-1,-1,-1,-1,-1,-1,-1,-1,-1,-1,-1,-1,-1,-1,-1,-1,-1,-1,-1,-1,-1,-1,-1,-1
-1,-1,-1,-1,-1,-1,-1,-1,-1,-1,-1,-1,-1,-1,-1,-1,-1,-1,-1,-1,-1,-1,-1,-1,-1,-1,-1,-1,-1,-1,-1,-1,-1,-1,-1,-1,-1,25,10,4,5,0,0,0,0,0,0,1,0,1,0,0,0,0,1,3,2,0,0,0,0,0,0,3,3,0,0,0,0,0,0,3,4,6,4,4,4,4,6,4,4,4,4,4,4,8,8,4,4,4,4,4,4,6,8,7,4,8,8,3,5,6,6,2,1,1,1,1,1,0,1,2,3,1,1,1,2,2,1,3,3,0,0,1,2,2,1,0,0,0,0,0,1,3,2,0,1,3,6,7,7,7,6,8,9,9,9,8,8,7,7,7,5,7,7,5,6,8,7,6,6,7,7,6,6,6,6,3,0,0,0,1,2,2,1,3,3,0,0,1,3,2,1,3,2,0,0,1,1,2,2,1,1,0,0,0,1,2,2,1,1,0,0,0,0,0,0,0,0,1,2,2,1,0,0,0,0,0,0,0,0,0,0,1,1,1,1,1,1,1,1,3,2,0,0,0,0,0,0,1,1,1,1,1,1,1,1,1,1,1,2,2,1,1,1,1,1,0,1,3,2,0,0,3,3,0,0,0,0,1,0,1,1,1,1,1,1,0,0,2,3,1,1,1,1,1,0,0,1,1,2,2,3,4,3,2,3,1,1,3,2,2,2,2,5,1,1,1,1,0,0,0,0,0,1,2,2,1,1,0,1,2,3,2,3,1,3,2,3,2,2,1,1,1,1,5,3,2,2,2,1,0,0,1,1,1,1,1,2,2,1,0,0,0,1,1,1,1,2,2,3,7,8,5,2,7,6,3,3,3,3,4,6,4,4,3,0,1,2,2,1,0,0,0,1,5,4,6,4,3,3,4,3,1,0,1,3,3,3,12,12,7,6,4,6,7,7,4,4,8,6,3,2,3,3,1,12,16,13,-1,-1,-1,-1,-1,-1,-1,-1,-1,-1,-1,-1,-1,-1,-1,-1,-1,-1,-1,-1,-1,-1,-1,-1
-1,-1,-1,-1,-1,-1,-1,-1,-1,-1,-1,-1,-1,-1,-1,-1,-1,-1,-1,-1,-1,-1,-1,-1,-1,-1,-1,-1,-1,-1,-1,-1,-1,-1,-1,-1,-1,8,13,10,1,0,0,0,0,0,0,0,0,0,0,0,0,0,0,3,3,0,0,0,0,0,1,3,2,0,0,0,0,0,0,1,5,7,7,6,5,3,4,4,4,4,6,6,6,8,7,4,4,6,6,4,4,7,8,6,4,8,8,4,4,6,6,5,1,1,2,2,2,2,1,3,3,0,1,2,2,1,0,3,3,0,0,2,3,1,0,0,0,0,0,0,0,3,3,0,0,3,4,6,8,7,4,7,8,9,10,9,7,8,7,7,7,5,7,7,6,7,9,6,6,5,5,6,6,8,7,3,0,0,0,2,3,1,0,3,3,0,1,2,2,1,2,2,1,1,1,2,2,1,1,0,0,0,0,1,2,2,1,0,0,0,0,0,0,0,0,1,1,2,2,1,0,0,0,0,0,0,0,0,0,0,0,2,3,1,1,1,1,1,1,1,1,0,0,0,0,0,0,1,1,1,1,2,2,1,1,1,1,2,2,1,1,2,2,2,2,1,2,2,1,0,0,3,3,0,0,1,1,1,2,1,2,1,1,2,2,1,1,3,2,0,0,0,0,0,0,1,1,1,1,2,3,3,3,3,3,1,2,2,2,3,1,3,3,0,1,2,2,1,1,1,0,0,1,2,3,1,0,1,0,1,3,2,1,1,1,3,3,1,2,2,1,1,0,3,3,2,2,3,2,0,0,0,0,0,0,2,3,1,0,0,1,1,2,2,2,2,1,2,4,7,7,5,2,3,5,1,3,2,5,6,6,6,3,2,2,2,2,1,0,0,0,0,2,4,6,5,7,2,0,6,6,2,1,2,3,4,4,11,12,7,7,6,4,6,6,3,3,6,6,3,1,3,3,1,10,16,7,-1,-1,-1,-1,-1,-1,-1,-1,-1,-1,-1,-1,-1,-1,-1,-1,-1,-1,-1,-1,-1,-1,-1,-1
-1,-1,-1,-1,-1,-1,-1,-1,-1,-1,-1,-1,-1,-1,-1,-1,-1,-1,-1,-1,-1,-1,-1,-1,-1,-1,-1,-1,-1,-1,-1,-1,-1,-1,-1,-1,-1,13,22,6,2,0,0,0,0,0,0,0,0,1,1,1,1,1,1,3,3,0,0,0,0,1,2,2,1,0,0,0,0,0,0,1,2,6,6,4,3,3,4,4,4,6,7,7,6,6,6,4,4,7,8,4,4,8,7,4,6,8,7,4,4,6,6,3,1,2,1,1,1,2,2,3,2,1,2,2,1,1,1,3,2,0,1,3,2,0,0,0,0,0,0,0,0,2,3,1,0,3,4,4,7,8,6,6,8,9,9,9,8,7,8,6,5,7,7,5,6,9,7,6,6,7,7,6,4,7,8,5,0,0,1,3,2,0,0,3,3,0,2,3,2,3,1,1,1,2,2,1,1,0,0,0,0,0,0,2,3,1,0,1,1,1,1,1,1,1,1,2,2,1,1,0,0,0,0,0,0,0,0,0,0,0,0,3,3,0,0,0,0,0,0,0,0,0,0,0,0,0,0,2,3,1,1,1,1,0,0,1,0,1,1,2,2,1,1,1,1,0,1,1,1,1,1,3,2,1,1,2,2,1,1,1,1,1,1,1,1,1,1,1,1,0,0,0,1,1,1,2,2,1,1,3,2,3,3,3,3,2,3,1,3,3,0,3,3,0,1,3,2,0,2,3,1,1,2,2,1,1,0,2,2,2,3,3,0,0,0,3,3,0,1,1,3,2,0,2,3,1,3,4,3,0,0,0,0,0,1,3,2,0,0,1,2,2,1,1,1,1,2,2,2,3,2,2,4,1,0,2,3,2,4,6,4,2,2,1,1,1,1,0,0,0,0,2,5,8,7,6,4,1,2,7,6,3,1,3,4,4,4,9,9,7,8,7,4,4,6,5,3,4,4,3,0,3,3,1,9,4,5,-1,-1,-1,-1,-1,-1,-1,-1,-1,-1,-1,-1,-1,-1,-1,-1,-1,-1,-1,-1,-1,-1,-1,-1
-1,-1,-1,-1,-1,-1,-1,-1,-1,-1,-1,-1,-1,-1,-1,-1,-1,-1,-1,-1,-1,-1,-1,-1,-1,-1,-1,-1,-1,-1,-1,-1,-1,-1,-1,-1,-1,5,19,6,1,0,0,0,0,0,0,0,1,2,2,1,1,2,2,2,3,1,0,0,1,2,2,1,0,0,0,0,0,0,0,2,4,6,4,2,3,6,6,3,4,7,8,6,4,4,4,4,4,8,8,4,4,7,6,4,5,8,8,7,4,7,7,4,1,1,1,1,1,1,0,1,1,2,2,1,1,2,2,1,1,1,2,2,1,0,0,1,0,1,0,0,0,1,3,2,0,2,4,6,5,7,6,6,8,10,10,9,7,8,5,6,7,7,7,7,6,7,8,6,6,5,7,7,6,5,7,6,1,1,2,2,1,0,0,3,3,1,3,2,3,2,1,2,2,1,1,0,0,1,1,1,1,1,1,3,2,0,0,2,3,1,1,1,1,1,1,1,1,0,0,0,0,0,0,1,1,1,1,1,1,1,1,3,2,0,0,0,0,0,0,0,0,0,0,0,0,0,0,3,3,0,0,0,0,0,0,2,2,2,1,1,1,3,2,1,1,1,1,1,1,1,1,1,1,2,2,1,1,0,0,0,0,0,0,1,2,2,1,1,1,1,1,1,2,2,1,1,1,1,1,1,1,3,3,3,3,2,3,1,2,3,1,2,3,1,1,3,2,0,3,3,0,0,1,1,1,1,1,2,4,2,3,2,0,0,0,3,3,0,0,0,3,3,0,1,3,2,3,4,3,0,0,0,0,1,2,2,1,1,1,2,2,1,1,1,1,1,1,1,1,1,2,2,5,2,2,4,5,3,4,4,3,1,1,1,1,1,1,1,1,1,1,6,6,6,7,6,5,1,1,2,4,2,2,3,6,7,6,7,8,8,9,8,3,4,6,2,3,6,4,2,0,3,3,1,2,8,-1,-1,-1,-1,-1,-1,-1,-1,-1,-1,-1,-1,-1,-1,-1,-1,-1,-1,-1,-1,-1,-1,-1,-1,-1
-1,-1,-1,-1,-1,-1,-1,-1,-1,-1,-1,-1,-1,-1,-1,-1,-1,-1,-1,-1,-1,-1,-1,-1,-1,-1,-1,-1,-1,-1,-1,-1,-1,-1,-1,-1,-1,7,14,8,2,1,1,1,1,1,1,1,2,2,1,1,1,1,2,2,2,2,1,0,2,3,1,0,0,0,0,0,0,0,0,2,2,3,3,1,5,8,7,2,6,9,8,4,4,4,4,4,4,8,8,3,7,5,4,4,7,8,9,8,4,6,6,4,3,2,3,1,3,3,3,1,1,1,1,0,2,3,1,0,1,2,2,1,0,0,0,2,2,2,0,0,0,0,2,2,1,2,4,6,7,7,6,6,8,9,9,8,8,7,7,7,5,8,7,6,7,7,5,6,6,8,7,6,8,7,6,4,2,2,2,1,0,0,0,3,3,2,3,2,3,2,3,1,1,0,0,0,1,2,2,2,1,2,1,1,1,0,0,5,3,1,1,1,1,1,1,1,1,0,0,0,0,0,0,2,3,1,1,1,1,1,1,1,1,0,0,0,0,0,0,0,0,0,0,0,0,0,0,3,3,0,0,0,0,0,0,3,3,3,2,0,0,3,3,2,3,1,1,1,1,1,1,2,2,1,1,0,0,0,0,0,0,1,1,2,2,1,1,1,1,1,1,1,1,1,1,1,2,2,1,1,1,3,2,3,2,1,3,2,1,3,2,2,3,1,1,3,2,1,3,2,0,0,1,1,1,1,1,5,2,2,2,1,1,1,1,3,2,0,0,0,3,3,1,0,3,4,3,3,3,0,1,0,1,2,3,1,0,2,3,1,1,0,2,3,1,1,2,1,2,1,3,2,1,0,1,7,6,3,4,3,1,0,0,2,3,1,1,1,1,1,1,7,10,3,3,4,3,0,0,1,0,1,3,4,6,7,7,5,8,9,9,7,3,4,4,3,1,6,6,1,0,3,3,2,9,9,-1,-1,-1,-1,-1,-1,-1,-1,-1,-1,-1,-1,-1,-1,-1,-1,-1,-1,-1,-1,-1,-1,-1,-1,-1
-1,-1,-1,-1,-1,-1,-1,-1,-1,-1,-1,-1,-1,-1,-1,-1,-1,-1,-1,-1,-1,-1,-1,-1,-1,-1,-1,-1,-1,-1,-1,-1,-1,-1,-1,-1,-1,30,23,19,2,1,1,1,1,2,4,3,3,4,3,5,5,2,2,1,2,5,2,1,3,2,0,0,0,0,0,0,0,1,1,2,1,2,2,4,3,5,10,5,2,7,8,6,6,6,4,6,6,8,7,4,4,5,6,6,8,7,8,7,4,4,4,7,7,3,3,1,2,6,6,4,1,1,1,1,3,2,0,0,1,3,2,1,1,1,1,2,2,2,0,0,0,0,1,0,2,3,4,4,4,5,6,7,7,9,10,8,7,7,7,7,7,7,9,6,5,8,7,4,4,7,8,6,7,8,6,4,4,5,2,1,1,1,1,5,2,3,2,3,3,2,3,1,1,0,0,0,1,3,2,1,1,1,0,0,0,0,0,4,7,2,2,2,2,2,2,4,1,0,0,0,0,0,0,2,3,1,1,1,1,1,0,0,0,0,0,0,0,0,0,0,0,0,0,0,0,0,0,3,3,0,0,0,0,0,0,3,3,2,3,1,1,2,5,5,2,1,1,1,1,1,1,1,1,0,0,0,0,0,1,0,1,2,3,1,2,3,1,1,1,1,1,2,2,1,1,1,1,1,0,0,0,1,2,2,1,1,3,2,1,2,2,2,5,1,2,3,1,2,2,1,0,0,1,4,2,2,1,2,4,2,2,2,1,1,0,1,1,1,1,1,3,2,1,2,2,4,3,3,3,0,1,2,1,4,2,0,0,3,3,0,1,1,3,2,2,2,2,4,5,3,3,5,2,2,2,7,4,2,3,1,1,0,0,3,3,1,1,1,1,2,2,11,8,3,2,3,2,0,0,0,0,2,5,6,7,7,7,7,7,10,9,6,4,6,5,1,3,4,3,0,0,3,3,1,9,10,-1,-1,-1,-1,-1,-1,-1,-1,-1,-1,-1,-1,-1,-1,-1,-1,-1,-1,-1,-1,-1,-1,-1,-1,-1
-1,-1,-1,-1,-1,-1,-1,-1,-1,-1,-1,-1,-1,-1,-1,-1,-1,-1,-1,-1,-1,-1,-1,-1,-1,-1,-1,-1,-1,-1,-1,-1,-1,-1,-1,-1,-1,27,28,12,5,0,1,2,3,6,7,5,1,4,3,2,2,2,1,2,8,5,5,2,2,2,0,0,0,0,0,0,1,2,2,1,3,3,3,1,1,6,7,2,4,7,7,10,7,7,6,6,7,6,5,4,4,7,8,6,7,8,6,6,4,4,4,8,8,4,6,5,6,7,7,1,2,2,2,1,1,1,0,0,1,2,3,1,1,4,2,2,1,1,0,0,0,0,0,0,2,3,3,3,5,8,7,6,7,9,10,8,7,7,7,7,5,8,7,6,8,8,8,4,7,7,8,7,6,8,7,3,5,4,3,3,2,1,2,2,5,1,1,3,3,1,1,3,2,0,0,0,1,1,1,3,2,0,0,0,0,0,0,5,3,1,1,1,1,1,1,1,1,0,0,0,0,0,0,1,1,1,2,2,4,1,0,0,0,0,0,0,0,0,0,0,0,0,0,1,1,1,1,3,2,0,0,0,0,0,0,2,3,1,1,1,1,2,3,1,3,1,1,1,1,1,1,1,1,1,1,1,1,1,2,1,2,3,2,1,3,2,0,0,0,0,0,1,1,1,1,1,1,1,1,1,1,1,1,1,1,2,2,1,2,1,2,7,4,1,3,2,2,3,1,0,0,0,2,2,4,1,0,1,0,1,1,1,2,2,1,1,1,1,1,1,1,1,2,2,1,3,3,3,2,0,1,3,5,2,1,1,1,5,4,1,4,3,3,3,3,3,2,5,4,2,1,1,2,2,2,6,4,1,2,1,2,1,0,3,3,1,4,4,3,4,5,6,8,2,5,1,1,0,0,0,1,4,6,3,6,8,7,7,9,10,7,6,4,4,3,2,3,5,2,0,0,3,3,6,4,15,-1,-1,-1,-1,-1,-1,-1,-1,-1,-1,-1,-1,-1,-1,-1,-1,-1,-1,-1,-1,-1,-1,-1,-1,-1
-1,-1,-1,-1,-1,-1,-1,-1,-1,-1,-1,-1,-1,-1,-1,-1,-1,-1,-1,-1,-1,-1,-1,-1,-1,-1,-1,-1,-1,-1,-1,-1,-1,-1,-1,-1,-1,30,12,18,5,2,4,2,5,4,2,2,2,1,2,2,1,1,2,2,2,2,2,1,2,2,1,0,0,0,0,0,1,3,2,1,3,4,3,0,0,3,4,3,1,6,7,7,9,6,6,4,6,4,5,7,3,8,8,5,8,7,6,4,4,4,4,8,8,4,4,3,2,4,6,4,1,2,1,0,0,0,0,0,1,2,2,1,1,1,1,1,1,1,1,1,1,0,0,0,3,3,3,3,3,7,8,6,5,10,10,7,7,7,7,7,8,5,7,7,7,8,5,4,7,8,8,8,4,8,8,4,3,4,4,2,1,0,1,3,2,0,0,3,3,0,0,3,3,0,0,0,0,0,0,3,3,0,0,0,0,0,0,3,3,0,0,0,0,0,0,0,0,0,0,0,0,0,0,1,1,1,2,2,1,1,0,0,0,0,0,0,0,0,0,0,0,1,1,2,2,1,1,1,1,0,0,0,0,0,0,1,2,2,1,0,0,0,1,0,1,0,0,0,0,0,0,0,0,0,1,1,1,1,1,1,0,1,2,2,1,1,1,1,1,1,1,1,1,1,1,1,1,1,1,1,1,1,1,2,2,1,2,2,1,0,1,3,5,2,3,1,3,3,0,0,0,1,2,2,1,1,0,0,0,0,0,0,2,2,4,2,3,1,1,2,2,1,0,1,1,5,3,2,1,1,1,5,2,3,2,0,0,3,4,2,2,2,2,2,3,2,2,3,1,1,2,1,2,1,3,2,0,2,3,2,3,1,1,3,2,1,1,1,4,6,3,6,4,3,2,0,0,0,0,1,3,6,4,4,6,9,7,7,7,8,7,4,3,5,3,2,1,2,2,1,0,2,3,3,17,6,-1,-1,-1,-1,-1,-1,-1,-1,-1,-1,-1,-1,-1,-1,-1,-1,-1,-1,-1,-1,-1,-1,-1,-1,-1
-1,-1,-1,-1,-1,-1,-1,-1,-1,-1,-1,-1,-1,-1,-1,-1,-1,-1,-1,-1,-1,-1,-1,-1,-1,-1,-1,-1,-1,-1,-1,-1,-1,-1,-1,-1,-1,17,10,9,2,2,4,4,6,5,4,9,3,2,2,1,1,1,1,2,2,3,3,3,3,2,3,1,1,1,1,1,1,2,2,3,2,3,2,0,0,3,3,2,1,4,6,8,7,4,4,4,4,6,7,4,4,8,8,6,6,8,7,4,4,4,4,8,8,4,4,3,0,3,4,3,1,1,0,0,0,0,0,1,2,2,1,0,0,1,1,3,2,1,1,3,2,0,1,0,3,3,3,2,3,6,6,6,7,9,10,8,7,8,5,8,7,7,7,7,7,7,8,6,5,8,8,8,6,8,8,4,4,4,5,1,0,0,2,3,1,0,0,3,3,0,0,3,3,0,0,0,0,0,0,3,3,0,0,0,0,0,0,3,3,0,0,0,0,0,0,0,0,0,0,0,0,0,0,1,3,2,1,1,0,0,0,0,0,0,0,0,0,0,0,0,0,1,4,2,2,0,0,0,0,0,0,0,0,0,0,0,1,3,2,0,0,0,0,0,0,0,0,0,0,0,0,1,1,1,2,2,1,1,1,1,2,2,1,1,1,2,2,1,1,1,1,1,1,1,1,2,2,2,2,1,1,1,1,1,1,2,2,2,2,1,2,2,2,3,2,0,3,3,0,1,1,2,2,1,0,0,0,0,0,0,0,0,2,3,1,6,7,3,2,1,3,2,0,0,0,2,3,2,2,2,2,2,4,4,3,0,1,5,6,2,1,2,2,2,3,1,1,3,2,2,1,1,2,2,1,1,0,2,3,2,2,1,2,2,1,1,1,3,4,4,3,6,6,1,1,0,0,0,1,3,4,4,4,6,7,8,9,5,7,7,6,4,3,2,5,1,0,1,3,2,0,1,1,3,7,9,-1,-1,-1,-1,-1,-1,-1,-1,-1,-1,-1,-1,-1,-1,-1,-1,-1,-1,-1,-1,-1,-1,-1,-1,-1
-1,-1,-1,-1,-1,-1,-1,-1,-1,-1,-1,-1,-1,-1,-1,-1,-1,-1,-1,-1,-1,-1,-1,-1,-1,-1,-1,-1,-1,-1,-1,-1,-1,-1,-1,-1,-1,19,11,5,3,0,0,0,1,0,1,3,3,2,3,1,0,0,0,3,4,3,2,3,2,3,3,0,0,1,2,2,1,1,1,3,3,1,1,1,1,3,4,2,1,3,6,6,6,4,4,4,4,7,8,4,4,8,7,4,4,8,8,4,4,4,4,8,8,4,4,4,3,3,2,3,2,0,0,0,0,0,1,2,2,1,0,0,0,2,3,2,4,2,0,3,3,1,2,2,2,4,3,1,3,4,4,4,6,9,9,7,8,8,7,7,7,7,7,7,5,9,7,8,7,8,8,6,8,8,8,6,4,4,3,0,0,0,3,3,0,0,0,3,3,0,0,3,3,0,0,0,0,0,0,3,3,0,0,0,0,1,1,3,2,0,0,0,0,0,0,1,1,1,1,1,1,1,1,1,2,2,1,1,1,0,0,0,0,0,0,0,0,0,0,0,0,1,1,2,2,1,1,1,0,0,0,0,0,0,0,0,0,3,3,0,0,0,0,0,0,0,0,0,1,1,1,2,2,1,1,1,1,1,1,1,1,1,1,1,2,2,1,0,0,0,0,0,0,0,0,0,0,1,1,1,1,1,1,1,2,2,2,2,1,1,1,1,2,2,1,1,3,2,0,2,3,1,1,0,0,0,0,0,0,0,0,0,2,3,1,6,7,3,2,0,3,3,0,0,0,1,2,2,1,2,2,1,5,6,2,1,3,3,4,5,1,1,1,2,3,1,1,1,0,1,1,1,1,1,0,1,0,1,0,1,1,3,2,3,2,0,0,3,4,4,3,3,3,0,0,0,1,1,3,4,4,4,4,7,8,8,8,5,8,7,6,5,1,3,3,0,0,0,3,3,0,0,1,4,9,5,-1,-1,-1,-1,-1,-1,-1,-1,-1,-1,-1,-1,-1,-1,-1,-1,-1,-1,-1,-1,-1,-1,-1,-1,-1
-1,-1,-1,-1,-1,-1,-1,-1,-1,-1,-1,-1,-1,-1,-1,-1,-1,-1,-1,-1,-1,-1,-1,-1,-1,-1,-1,-1,-1,-1,-1,-1,-1,-1,-1,-1,-1,17,3,14,5,2,2,1,1,3,2,1,1,3,2,1,1,1,1,2,4,2,1,1,1,3,2,0,0,2,3,1,1,1,0,2,3,1,2,3,1,3,4,4,3,3,4,4,4,4,4,4,5,8,7,4,4,6,6,4,4,8,8,4,4,6,6,7,8,6,6,4,3,0,1,3,3,0,0,0,1,1,2,2,1,0,0,0,0,3,3,2,2,2,1,3,2,2,2,2,4,6,3,2,1,3,4,4,4,7,8,5,9,8,7,8,7,8,7,7,7,7,8,7,8,7,8,6,7,8,7,7,6,4,3,0,0,0,3,3,0,0,0,3,3,0,0,3,3,0,0,0,0,0,0,3,3,0,0,0,1,2,2,1,1,0,0,0,0,0,0,2,3,1,1,1,1,1,1,3,2,1,1,2,2,1,1,0,0,0,0,0,0,0,0,0,0,0,0,1,1,1,2,2,1,0,0,0,0,0,0,0,0,3,3,0,0,0,0,0,0,0,0,1,2,2,1,1,1,0,1,2,2,1,1,2,2,1,1,1,1,1,1,1,1,1,1,1,1,1,1,2,2,1,1,1,0,0,0,0,1,3,2,2,2,1,2,2,2,1,1,2,2,1,1,5,2,1,1,1,1,1,0,0,0,0,0,0,1,1,3,4,3,1,1,0,2,3,1,0,1,1,1,1,3,3,3,3,4,6,5,1,2,3,3,2,0,0,0,0,0,0,0,2,3,1,3,2,0,1,1,3,1,3,3,2,1,3,2,3,3,0,0,3,4,3,2,2,1,0,0,1,3,2,3,4,4,6,6,8,7,8,8,6,6,4,4,3,0,3,3,0,1,1,3,2,1,1,2,0,12,15,-1,-1,-1,-1,-1,-1,-1,-1,-1,-1,-1,-1,-1,-1,-1,-1,-1,-1,-1,-1,-1,-1,-1,-1,-1
-1,-1,-1,-1,-1,-1,-1,-1,-1,-1,-1,-1,-1,-1,-1,-1,-1,-1,-1,-1,-1,-1,-1,-1,-1,-1,-1,-1,-1,-1,-1,-1,-1,-1,-1,-1,-1,18,7,11,4,1,3,2,1,3,2,0,0,3,3,0,0,0,0,5,3,1,0,0,0,1,1,1,1,5,4,2,2,3,1,1,1,0,2,3,1,2,6,5,5,2,4,6,6,4,3,7,8,8,6,4,4,4,4,4,4,7,8,4,4,8,7,6,6,7,7,6,4,3,1,3,3,0,0,0,2,3,1,1,0,0,0,0,0,2,3,1,1,1,2,2,2,3,1,1,2,6,4,1,2,2,3,4,4,6,8,7,7,8,8,9,8,8,8,6,8,7,8,7,7,7,8,7,6,8,7,8,7,4,3,0,0,1,3,2,0,0,0,3,3,0,0,3,3,0,0,0,0,0,0,3,3,0,0,1,2,2,1,0,0,0,0,0,0,0,0,3,3,0,0,0,0,0,0,3,3,0,0,2,2,4,1,0,0,0,0,0,0,0,0,0,0,0,0,0,1,1,2,3,1,0,0,0,0,0,0,0,1,3,2,0,0,0,0,0,0,0,0,2,3,1,0,0,0,0,2,3,1,0,0,1,1,1,1,1,2,2,1,1,1,1,1,1,1,1,1,1,1,1,2,2,1,1,1,0,0,3,3,1,1,1,1,3,3,0,0,1,1,3,2,2,3,1,1,1,3,2,0,0,0,0,0,0,1,1,3,2,3,0,0,0,1,2,2,1,2,2,1,3,4,4,3,3,4,4,4,3,1,2,3,2,0,1,1,2,2,1,0,2,3,1,3,2,1,3,2,3,2,3,3,2,2,3,1,3,2,0,0,2,3,2,2,1,0,0,0,2,4,4,3,6,6,7,7,6,6,8,8,4,4,4,3,2,0,3,3,1,2,2,1,1,2,2,1,2,7,20,-1,-1,-1,-1,-1,-1,-1,-1,-1,-1,-1,-1,-1,-1,-1,-1,-1,-1,-1,-1,-1,-1,-1,-1,-1
-1,-1,-1,-1,-1,-1,-1,-1,-1,-1,-1,-1,-1,-1,-1,-1,-1,-1,-1,-1,-1,-1,-1,-1,-1,-1,-1,-1,-1,-1,-1,-1,-1,-1,-1,-1,20,23,20,12,2,2,3,2,1,1,1,0,0,2,3,1,0,1,1,7,6,0,1,1,1,1,1,1,1,3,4,3,2,3,1,0,0,1,5,4,2,3,4,2,3,3,3,4,6,4,2,6,8,7,4,4,4,4,4,4,4,6,6,4,4,8,8,4,4,6,8,7,4,3,2,2,2,0,0,1,3,2,0,0,0,0,0,0,0,1,2,2,2,2,1,1,3,2,0,0,3,6,4,2,1,2,3,3,4,4,7,8,5,8,9,9,8,8,8,4,8,8,8,8,6,8,8,8,6,8,8,8,8,4,3,0,0,2,3,1,0,0,0,3,3,0,0,3,3,0,0,0,0,0,0,3,3,0,0,2,3,1,0,0,0,0,0,0,0,0,0,3,3,0,0,0,0,0,0,2,3,1,1,2,2,1,1,0,0,0,0,0,0,0,0,0,0,0,1,1,2,2,1,1,1,0,0,0,0,0,0,1,2,2,1,0,0,0,1,0,1,0,0,3,3,0,0,0,0,0,3,3,0,0,1,0,1,0,0,0,1,1,1,1,1,1,1,1,1,1,1,1,1,2,2,1,1,2,2,1,1,3,3,0,0,0,0,3,3,0,0,0,1,3,2,0,0,0,0,0,2,3,1,1,0,0,0,0,1,4,2,4,3,0,0,1,1,1,1,0,1,3,3,4,6,6,4,3,3,4,4,3,1,1,2,2,1,2,2,1,2,2,1,1,1,1,1,1,2,3,5,2,2,1,3,2,2,3,2,3,2,1,1,1,2,2,1,0,0,0,1,5,6,6,6,6,8,6,6,4,4,8,8,3,3,3,3,1,1,5,4,2,0,1,1,2,2,1,1,1,9,20,-1,-1,-1,-1,-1,-1,-1,-1,-1,-1,-1,-1,-1,-1,-1,-1,-1,-1,-1,-1,-1,-1,-1,-1,-1
-1,-1,-1,-1,-1,-1,-1,-1,-1,-1,-1,-1,-1,-1,-1,-1,-1,-1,-1,-1,-1,-1,-1,-1,-1,-1,-1,-1,-1,-1,-1,-1,-1,-1,-1,-1,-1,-1,-1,-1,-1,3,2,2,4,2,2,2,2,2,6,7,2,6,3,6,9,6,2,2,3,0,3,3,2,2,4,5,4,5,2,1,1,2,3,6,5,5,6,2,1,2,3,4,6,4,2,6,7,6,4,6,6,6,4,4,4,4,4,4,4,8,8,4,4,6,7,8,6,6,3,1,1,0,0,1,3,2,1,0,0,0,0,0,0,0,1,1,1,1,1,1,5,2,1,2,5,6,6,2,1,3,3,3,3,4,7,8,7,8,8,9,9,7,9,6,8,8,8,8,4,8,8,8,7,8,7,8,7,4,5,1,1,2,5,1,1,0,1,3,2,0,0,2,3,1,1,0,0,1,1,3,2,0,1,3,2,0,0,0,0,0,0,0,0,1,1,3,2,0,0,0,0,0,0,1,1,1,1,1,1,1,2,1,2,0,0,0,0,0,0,1,1,1,2,2,1,1,0,0,0,0,0,1,1,1,1,2,2,1,0,0,0,0,1,2,1,0,1,3,2,0,0,0,0,0,3,3,0,0,1,2,1,0,0,0,0,1,1,1,1,1,1,1,1,1,1,1,1,1,1,3,2,2,2,2,1,2,3,1,1,1,1,3,3,0,1,1,2,2,1,2,3,1,1,1,1,1,2,2,1,1,1,1,1,1,2,4,2,1,1,2,2,1,1,1,1,3,4,4,5,8,7,5,3,4,4,2,4,2,1,1,0,1,3,2,1,3,2,1,1,1,2,3,3,5,4,3,1,2,2,4,2,2,2,1,1,2,2,1,1,1,1,1,1,2,5,4,4,7,6,8,7,4,4,6,6,8,7,3,1,5,2,1,2,3,6,4,1,1,2,2,1,0,1,4,9,19,-1,-1,-1,-1,-1,-1,-1,-1,-1,-1,-1,-1,-1,-1,-1,-1,-1,-1,-1,-1,-1,-1,-1,-1,-1
-1,-1,-1,-1,-1,-1,-1,-1,-1,-1,-1,-1,-1,-1,-1,-1,-1,-1,-1,-1,-1,-1,-1,-1,-1,-1,-1,-1,-1,-1,-1,-1,-1,-1,-1,-1,-1,-1,-1,-1,-1,-1,-1,-1,-1,-1,-1,-1,-1,-1,-1,8,-1,2,-1,2,3,8,14,7,9,1,9,11,2,1,2,2,2,2,2,3,3,3,3,3,1,1,3,2,0,1,3,3,4,6,5,3,6,4,6,7,7,6,4,3,4,4,4,4,4,8,8,3,6,8,7,6,7,7,6,3,1,1,1,1,2,3,1,0,0,0,0,1,1,1,1,1,1,1,1,4,3,3,3,4,5,2,3,2,2,2,3,2,3,4,7,8,7,8,5,9,7,9,8,7,7,8,7,8,6,8,9,8,7,8,7,8,4,4,4,1,4,5,3,3,1,0,2,3,1,0,0,1,2,3,1,0,1,2,2,1,1,1,2,2,1,0,0,0,0,0,0,0,0,1,3,2,1,0,0,0,0,0,0,0,0,0,2,3,1,1,2,5,3,1,1,1,1,0,0,2,3,1,1,1,0,0,0,0,0,0,0,2,3,1,1,1,1,0,0,0,0,0,1,0,1,0,2,3,1,0,0,0,0,0,3,3,0,0,1,0,1,0,0,0,0,2,3,1,1,1,1,1,1,1,1,3,2,0,0,2,3,2,5,2,2,2,1,1,1,3,2,3,3,0,2,3,1,1,1,3,2,0,0,0,2,3,1,1,1,1,2,2,1,1,1,3,3,0,0,1,1,1,1,2,5,6,6,4,7,8,7,4,3,6,6,6,5,5,1,0,0,0,3,3,1,3,2,2,3,1,1,3,3,3,2,4,5,2,2,2,2,1,1,2,3,1,1,0,2,3,1,2,2,3,4,5,3,7,8,6,6,4,4,5,8,7,6,2,3,2,3,1,1,3,2,0,1,2,2,1,0,0,1,4,18,5,-1,-1,-1,-1,-1,-1,-1,-1,-1,-1,-1,-1,-1,-1,-1,-1,-1,-1,-1,-1,-1,-1,-1,-1,-1
-1,-1,-1,-1,-1,-1,-1,-1,-1,-1,-1,-1,-1,-1,-1,-1,-1,-1,-1,-1,-1,-1,-1,-1,-1,-1,-1,-1,-1,-1,-1,-1,-1,-1,-1,-1,-1,-1,-1,-1,-1,-1,-1,-1,-1,-1,-1,-1,-1,-1,-1,-1,-1,-1,-1,-1,-1,-1,-1,19,-1,17,18,14,9,2,3,1,1,1,1,3,4,3,3,3,0,2,3,1,0,0,2,3,3,4,3,5,4,4,7,8,5,6,3,2,3,4,4,4,4,8,8,4,4,6,6,4,6,7,7,5,1,2,2,1,2,2,1,1,1,1,1,2,2,1,1,1,3,2,1,0,2,3,3,4,3,2,2,2,3,2,3,1,3,4,8,8,8,8,4,8,8,8,8,8,7,8,7,8,7,8,9,8,7,8,7,7,3,4,4,3,1,1,2,3,1,0,3,3,0,0,0,1,2,2,1,0,2,3,1,0,0,2,3,1,0,0,0,0,0,0,0,0,0,1,2,2,1,0,0,0,0,0,0,1,1,1,3,2,0,0,1,1,1,1,1,3,2,0,0,3,3,0,0,0,0,0,0,0,0,0,1,3,2,0,0,0,0,0,0,0,0,0,0,1,1,1,3,2,0,0,0,0,0,0,3,3,0,0,0,0,0,0,0,0,0,3,3,0,0,0,0,0,0,0,0,2,3,1,1,1,1,3,2,0,3,3,0,0,0,3,3,2,3,1,2,3,1,1,2,2,1,1,1,1,3,3,2,2,2,2,3,1,0,0,0,3,3,0,0,0,0,0,1,2,3,6,6,3,6,7,7,6,3,4,4,3,1,3,2,0,1,1,5,2,3,2,1,5,3,2,1,3,3,3,1,3,2,0,0,0,0,0,0,3,3,0,0,1,3,2,2,1,4,4,4,3,5,8,7,4,4,4,4,6,6,6,2,5,3,2,1,0,2,3,1,0,2,3,1,0,0,0,0,4,14,3,-1,-1,-1,-1,-1,-1,-1,-1,-1,-1,-1,-1,-1,-1,-1,-1,-1,-1,-1,-1,-1,-1,-1,-1,-1
-1,-1,-1,-1,-1,-1,-1,-1,-1,-1,-1,-1,-1,-1,-1,-1,-1,-1,-1,-1,-1,-1,-1,-1,-1,-1,-1,-1,-1,-1,-1,-1,-1,-1,-1,-1,-1,-1,-1,-1,-1,-1,-1,-1,-1,-1,-1,-1,-1,-1,-1,-1,-1,-1,-1,-1,-1,-1,-1,-1,-1,-1,-1,19,10,6,6,4,2,1,2,4,6,3,2,3,1,3,2,0,0,0,1,2,2,3,3,6,7,3,7,8,7,8,6,1,3,4,4,4,4,8,8,4,4,4,4,4,4,6,6,4,4,3,1,1,1,1,0,2,3,1,1,1,1,0,0,0,2,3,1,1,3,3,3,4,4,2,1,3,2,3,2,0,3,4,8,8,8,8,4,7,8,7,8,7,8,8,8,8,8,8,9,8,5,8,7,4,4,4,4,3,0,1,3,2,0,0,3,3,0,0,0,2,3,1,0,1,3,2,0,0,0,3,3,0,0,0,0,0,0,0,0,0,0,0,1,3,2,0,0,0,0,0,0,2,3,1,1,1,0,0,0,0,0,0,0,2,3,1,0,3,3,0,0,0,0,0,0,0,0,1,2,2,1,0,0,0,0,0,0,0,0,0,0,2,3,1,1,1,0,0,0,0,0,0,3,3,0,0,0,0,0,0,0,0,0,3,3,0,0,0,0,0,0,0,0,1,1,1,1,1,2,2,1,3,3,3,1,0,0,2,3,2,3,1,1,1,1,1,1,2,3,1,3,2,3,3,3,2,3,3,2,0,0,0,0,2,3,1,1,1,0,1,2,2,4,8,6,3,6,7,7,6,2,2,2,1,1,0,1,1,3,2,3,3,3,3,1,2,2,2,2,2,5,2,3,1,1,0,0,0,0,0,1,5,2,1,1,3,2,3,3,2,3,4,3,3,4,6,5,6,4,4,4,4,4,4,3,2,5,1,0,1,3,2,0,1,3,2,0,0,0,0,0,7,3,-1,-1,-1,-1,-1,-1,-1,-1,-1,-1,-1,-1,-1,-1,-1,-1,-1,-1,-1,-1,-1,-1,-1,-1,-1,-1
-1,-1,-1,-1,-1,-1,-1,-1,-1,-1,-1,-1,-1,-1,-1,-1,-1,-1,-1,-1,-1,-1,-1,-1,-1,-1,-1,-1,-1,-1,-1,-1,-1,-1,-1,-1,-1,-1,-1,-1,-1,-1,-1,-1,-1,-1,-1,-1,-1,-1,-1,-1,-1,-1,-1,-1,-1,-1,-1,-1,-1,-1,-1,19,6,6,10,8,6,4,3,7,5,3,1,1,1,1,1,1,1,1,0,1,1,5,2,7,6,3,6,8,7,7,6,1,5,6,4,4,4,8,8,4,4,4,4,3,5,6,6,8,7,3,2,3,1,0,0,3,3,0,0,0,0,0,0,0,1,1,1,1,1,3,2,6,6,1,2,2,2,3,1,1,3,4,8,8,8,9,7,4,8,7,8,7,8,9,8,8,8,8,8,8,7,8,8,4,4,4,4,3,0,2,3,1,0,0,3,3,0,0,0,3,3,0,0,1,3,2,0,0,0,3,3,0,0,0,0,1,0,1,0,0,0,0,0,3,3,0,0,0,0,0,0,3,3,0,0,0,0,0,0,1,0,1,0,1,3,2,0,3,3,0,0,0,0,0,0,1,1,2,2,1,0,0,0,0,0,0,0,0,1,1,1,3,2,0,0,0,0,0,0,0,0,0,3,3,0,0,0,0,0,0,0,0,0,3,3,0,0,0,0,0,0,0,0,0,0,0,0,0,1,3,2,2,3,3,2,1,1,1,3,3,3,1,0,0,0,0,0,2,3,1,3,2,3,3,3,1,2,2,1,0,0,0,0,1,1,1,3,2,1,2,2,3,4,7,7,3,4,6,7,7,5,2,1,1,2,2,1,5,4,2,3,3,3,3,1,2,1,3,1,3,3,2,3,1,1,0,0,0,1,1,2,4,5,0,1,3,2,5,3,2,3,4,3,3,4,6,7,7,5,3,4,4,4,3,1,3,2,0,1,2,2,1,1,2,2,1,0,0,0,1,1,0,9,-1,-1,-1,-1,-1,-1,-1,-1,-1,-1,-1,-1,-1,-1,-1,-1,-1,-1,-1,-1,-1,-1,-1,-1,-1,-1
-1,-1,-1,-1,-1,-1,-1,-1,-1,-1,-1,-1,-1,-1,-1,-1,-1,-1,-1,-1,-1,-1,-1,-1,-1,-1,-1,-1,-1,-1,-1,-1,-1,-1,-1,-1,-1,-1,-1,-1,-1,-1,-1,-1,-1,-1,-1,-1,-1,-1,-1,-1,-1,-1,-1,-1,-1,-1,-1,-1,-1,-1,-1,18,6,6,7,6,2,4,3,6,4,2,1,1,1,2,2,1,2,2,1,1,1,3,2,5,4,2,3,7,8,5,4,3,4,6,5,3,4,7,8,6,4,4,4,3,3,4,4,8,8,3,3,4,3,1,1,3,2,0,0,0,0,0,0,0,0,1,1,1,2,2,2,4,5,2,3,1,3,3,0,2,3,3,7,8,8,9,8,3,7,7,8,7,8,9,8,8,8,8,8,7,8,7,8,6,4,4,4,3,0,2,3,1,0,0,3,3,0,0,0,2,3,1,1,1,2,2,1,0,0,2,3,1,0,0,1,2,1,2,1,1,0,0,0,3,3,0,0,0,0,0,0,3,3,0,0,0,0,0,0,1,2,1,0,0,2,3,1,3,3,0,0,0,0,0,0,2,3,1,1,0,0,0,0,0,0,0,0,1,2,2,1,1,1,0,0,0,0,0,0,0,0,0,3,3,0,0,0,0,0,0,0,0,0,3,3,0,0,0,0,0,0,0,0,1,0,1,0,0,0,3,3,1,2,3,5,2,2,2,3,6,5,1,0,0,0,1,1,1,1,0,1,1,3,3,3,1,0,1,0,0,0,0,1,0,1,0,3,3,2,3,1,6,7,5,4,4,4,4,6,6,2,2,1,1,1,1,0,6,7,1,2,3,2,3,1,3,2,3,1,2,3,1,1,3,2,0,0,1,3,2,2,8,4,1,2,2,2,3,5,1,5,4,3,3,4,7,7,6,3,3,4,4,3,1,2,2,1,1,2,2,1,1,2,2,1,0,0,0,1,2,2,2,13,-1,-1,-1,-1,-1,-1,-1,-1,-1,-1,-1,-1,-1,-1,-1,-1,-1,-1,-1,-1,-1,-1,-1,-1,-1,-1
-1,-1,-1,-1,-1,-1,-1,-1,-1,-1,-1,-1,-1,-1,-1,-1,-1,-1,-1,-1,-1,-1,-1,-1,-1,-1,-1,-1,-1,-1,-1,-1,-1,-1,-1,-1,-1,-1,-1,-1,-1,-1,-1,-1,-1,-1,-1,-1,-1,-1,-1,-1,-1,-1,-1,-1,-1,-1,-1,-1,-1,-1,-1,19,6,5,6,2,3,2,0,2,3,1,2,2,1,1,1,1,1,1,2,2,2,2,1,3,2,2,2,4,7,7,6,4,6,4,3,3,4,6,7,7,6,6,6,5,3,4,4,7,7,2,4,6,5,1,0,0,0,0,0,1,1,1,1,1,1,2,2,1,1,2,2,3,3,3,3,0,2,3,1,3,3,3,6,8,9,9,8,4,4,7,8,7,8,8,8,8,8,8,8,6,8,7,7,7,6,4,4,3,0,1,3,2,0,0,3,3,0,0,0,1,1,2,2,1,1,2,2,1,1,1,2,2,1,1,2,2,1,1,3,2,0,0,0,3,3,0,0,0,0,0,0,2,3,1,1,1,0,0,0,1,0,1,0,0,1,2,2,3,2,0,0,0,0,0,0,3,3,0,0,0,0,0,0,0,0,0,0,2,3,1,0,1,1,1,1,1,0,0,0,0,0,0,3,3,0,0,0,0,0,0,0,0,0,3,3,0,0,0,0,0,0,0,0,1,2,1,0,0,0,2,3,1,1,3,2,1,1,1,3,6,4,2,1,1,1,3,2,0,0,1,1,1,1,3,3,0,0,1,1,1,1,0,2,2,2,1,5,2,5,3,2,4,7,7,6,6,5,3,4,3,1,1,2,2,1,1,0,6,7,1,1,2,3,2,1,2,4,3,1,1,3,2,0,3,3,0,1,3,4,4,3,7,7,0,1,2,2,3,2,2,3,4,4,3,3,6,5,6,3,2,3,4,3,0,1,1,2,2,1,1,2,3,1,1,0,1,0,0,2,3,1,3,17,-1,-1,-1,-1,-1,-1,-1,-1,-1,-1,-1,-1,-1,-1,-1,-1,-1,-1,-1,-1,-1,-1,-1,-1,-1,-1
-1,-1,-1,-1,-1,-1,-1,-1,-1,-1,-1,-1,-1,-1,-1,-1,-1,-1,-1,-1,-1,-1,-1,-1,-1,-1,-1,-1,-1,-1,-1,-1,-1,-1,-1,-1,-1,-1,-1,-1,-1,-1,-1,-1,-1,-1,-1,-1,-1,-1,-1,-1,-1,-1,-1,-1,-1,-1,-1,-1,-1,-1,-1,4,4,1,1,1,4,5,3,1,2,2,3,1,0,0,0,2,2,2,1,1,1,1,2,2,1,1,1,5,7,8,4,7,5,4,3,3,4,4,6,6,6,6,6,4,4,4,4,4,3,5,6,6,4,2,0,2,3,1,1,2,2,1,1,1,1,1,1,1,2,2,1,3,3,2,3,1,1,1,2,4,4,3,4,8,9,9,8,4,4,8,8,8,7,8,7,8,7,8,8,4,7,8,5,9,7,4,4,3,1,1,2,3,1,0,3,3,0,0,0,0,0,1,1,2,2,1,1,1,2,2,1,1,1,1,1,1,0,0,2,3,1,0,0,3,3,0,0,0,0,0,0,1,1,1,3,2,0,0,1,0,1,0,0,0,0,1,1,1,1,0,0,0,0,0,0,3,3,0,0,0,0,0,0,0,0,0,0,3,3,0,0,2,3,1,3,2,0,0,0,0,0,0,3,3,0,0,0,0,0,0,0,0,0,3,3,0,0,0,0,0,0,0,0,1,0,1,0,1,0,1,1,1,3,2,2,1,2,2,2,6,6,1,0,0,0,3,3,1,1,2,2,1,1,3,3,0,0,2,3,3,2,0,3,2,3,2,3,5,3,3,3,3,4,6,4,4,3,3,4,2,3,1,1,1,2,3,1,3,3,0,0,1,1,2,2,1,1,1,1,1,3,2,0,5,3,1,3,4,4,7,7,6,7,1,1,1,2,3,3,3,3,4,4,5,3,4,7,8,5,2,3,2,3,1,1,1,1,1,0,1,3,2,0,2,2,2,0,0,3,3,0,1,1,-1,-1,-1,-1,-1,-1,-1,-1,-1,-1,-1,-1,-1,-1,-1,-1,-1,-1,-1,-1,-1,-1,-1,-1,-1,-1
-1,-1,-1,-1,-1,-1,-1,-1,-1,-1,-1,-1,-1,-1,-1,-1,-1,-1,-1,-1,-1,-1,-1,-1,-1,-1,-1,-1,-1,-1,-1,-1,-1,-1,-1,-1,-1,-1,-1,-1,-1,-1,-1,-1,-1,-1,-1,-1,-1,-1,-1,-1,-1,-1,-1,-1,-1,-1,-1,-1,-1,-1,-1,2,10,2,2,2,2,2,2,4,2,3,3,0,0,1,2,5,1,2,4,2,4,1,1,0,1,1,0,2,4,6,7,6,7,4,5,3,6,6,4,4,4,4,4,4,4,4,4,4,5,5,4,4,4,4,1,5,2,1,1,1,1,0,1,1,1,1,1,2,2,1,0,2,3,1,3,2,0,0,1,7,7,3,4,8,9,9,8,6,6,9,9,7,7,7,7,7,5,8,7,4,7,9,7,9,10,3,4,2,4,4,2,3,2,0,2,3,1,1,1,0,1,0,1,2,3,1,0,0,1,3,2,0,0,0,0,0,0,0,1,3,2,0,0,2,3,1,1,1,1,1,1,0,0,0,3,3,0,0,2,2,2,0,0,0,0,0,0,0,0,0,0,0,0,0,0,2,3,1,0,0,1,1,1,1,1,1,1,2,3,1,1,2,3,1,3,2,0,0,0,0,0,1,3,2,0,0,0,0,0,0,0,0,1,3,2,0,1,0,0,0,0,0,0,0,0,0,0,1,2,1,0,0,2,3,1,1,1,1,2,6,4,1,1,1,1,2,3,2,2,1,1,2,2,3,2,1,1,3,2,2,3,1,2,3,1,2,5,3,3,5,3,3,5,6,6,4,2,3,3,2,2,0,1,1,3,3,4,2,2,0,0,0,0,1,2,3,2,1,1,2,2,1,1,6,6,1,5,6,6,7,7,6,6,1,1,1,2,5,3,3,4,4,4,4,5,6,7,7,5,2,3,1,1,1,0,1,0,1,0,1,3,2,0,2,2,2,1,1,3,2,1,5,14,-1,-1,-1,-1,-1,-1,-1,-1,-1,-1,-1,-1,-1,-1,-1,-1,-1,-1,-1,-1,-1,-1,-1,-1,-1,-1
-1,-1,-1,-1,-1,-1,-1,-1,-1,-1,-1,-1,-1,-1,-1,-1,-1,-1,-1,-1,-1,-1,-1,-1,-1,-1,-1,-1,-1,-1,-1,-1,-1,-1,-1,-1,-1,-1,-1,-1,-1,-1,-1,-1,-1,-1,-1,-1,-1,-1,-1,-1,-1,-1,-1,-1,-1,-1,-1,-1,-1,-1,-1,21,5,1,1,1,1,1,3,2,6,6,3,2,2,5,3,2,1,0,0,0,1,0,1,2,3,2,1,2,2,6,7,8,4,5,4,4,7,8,5,3,4,4,4,4,4,4,4,6,7,3,3,3,7,6,3,2,5,1,1,0,0,0,2,3,1,1,1,1,1,0,0,1,1,3,3,3,1,0,0,7,8,4,4,6,8,9,8,7,8,7,10,9,6,7,8,7,7,6,6,4,7,9,9,5,6,4,4,3,1,1,1,3,3,0,1,1,3,2,2,2,2,0,1,3,2,1,0,0,0,3,3,0,0,0,0,0,0,0,0,3,3,0,0,1,1,1,1,1,2,3,1,0,0,0,3,3,0,0,2,2,2,0,0,0,0,0,0,0,0,0,0,0,0,0,0,1,2,2,1,1,1,4,2,6,5,2,3,2,1,2,2,1,1,1,1,1,0,0,0,0,0,2,3,1,0,0,0,0,0,0,0,0,2,3,2,2,2,0,0,0,0,0,1,0,1,0,0,1,0,1,0,0,1,0,1,1,1,2,2,6,7,1,1,1,2,2,1,1,1,3,2,1,1,1,1,2,3,1,1,1,3,2,1,6,6,2,3,1,5,4,4,4,3,3,4,4,2,2,1,0,1,0,2,3,1,1,1,3,2,0,0,0,0,0,1,3,3,3,2,1,1,2,3,4,4,3,4,6,6,4,4,6,2,3,2,2,3,2,5,1,3,3,7,6,4,6,4,4,3,2,1,2,2,2,1,2,2,2,0,1,3,2,0,1,1,2,2,1,1,2,3,6,6,-1,-1,-1,-1,-1,-1,-1,-1,-1,-1,-1,-1,-1,-1,-1,-1,-1,-1,-1,-1,-1,-1,-1,-1,-1,-1
-1,-1,-1,-1,-1,-1,-1,-1,-1,-1,-1,-1,-1,-1,-1,-1,-1,-1,-1,-1,-1,-1,-1,-1,-1,-1,-1,-1,-1,-1,-1,-1,-1,-1,-1,-1,-1,-1,-1,-1,-1,-1,-1,-1,-1,-1,-1,-1,-1,-1,-1,-1,-1,-1,-1,-1,-1,-1,-1,-1,-1,-1,-1,5,7,1,1,1,3,2,1,0,3,3,3,1,0,2,3,1,1,2,2,1,1,2,2,3,3,1,0,2,3,3,3,4,5,3,4,4,7,8,5,3,4,4,6,6,6,4,4,4,4,2,3,6,6,6,3,3,3,2,3,1,1,0,3,3,0,0,0,0,0,0,0,0,0,2,3,2,2,1,0,7,8,4,4,4,8,9,8,8,8,8,9,8,6,8,8,8,6,4,6,6,8,9,8,4,4,4,4,3,0,0,0,3,3,0,0,0,3,3,2,2,2,0,1,2,2,1,1,0,0,3,3,0,0,0,0,0,0,0,1,3,2,0,0,0,0,0,0,1,2,2,1,0,0,0,2,3,1,0,1,0,1,0,0,0,0,0,0,0,0,0,0,0,0,0,0,0,1,1,2,2,1,1,1,2,5,2,2,1,0,1,1,3,2,0,0,0,0,0,0,0,0,3,3,0,0,0,0,0,0,0,0,0,3,3,2,2,2,0,0,1,1,1,2,2,2,0,0,0,0,0,0,1,1,2,2,2,2,1,1,7,6,1,1,1,1,2,3,3,2,2,3,1,0,0,1,3,2,0,0,0,3,3,1,7,7,4,5,1,3,4,4,4,2,2,4,3,2,1,0,1,0,1,3,3,0,0,0,3,3,0,0,0,0,0,1,3,2,3,2,1,1,5,4,6,4,6,6,6,6,4,2,5,2,5,2,5,2,3,2,1,5,3,4,6,4,4,3,2,3,1,1,3,2,3,2,3,2,3,1,0,3,3,0,0,2,3,1,0,1,3,2,3,16,-1,-1,-1,-1,-1,-1,-1,-1,-1,-1,-1,-1,-1,-1,-1,-1,-1,-1,-1,-1,-1,-1,-1,-1,-1,-1
-1,-1,-1,-1,-1,-1,-1,-1,-1,-1,-1,-1,-1,-1,-1,-1,-1,-1,-1,-1,-1,-1,-1,-1,-1,-1,-1,-1,-1,-1,-1,-1,-1,-1,-1,-1,-1,-1,-1,-1,-1,-1,-1,-1,-1,-1,-1,-1,-1,-1,-1,-1,-1,-1,-1,-1,-1,-1,-1,-1,-1,-1,12,7,5,2,2,2,2,3,1,3,4,4,5,4,1,3,3,2,1,3,2,0,0,2,3,3,3,1,1,3,2,0,1,3,2,3,4,4,6,6,4,4,3,5,6,7,7,6,4,4,3,2,4,7,7,6,3,3,3,3,3,2,2,1,2,3,1,0,0,0,0,0,0,0,0,1,3,2,2,2,1,7,8,4,4,6,8,9,8,8,7,8,9,8,7,8,8,7,6,6,7,7,6,8,8,4,4,4,4,3,0,0,0,3,3,0,0,1,3,2,1,0,1,0,0,1,1,3,2,0,0,3,3,0,0,0,0,0,0,1,2,2,1,0,0,0,0,0,0,2,3,1,0,0,0,0,1,3,2,0,0,1,1,1,1,1,1,1,1,1,1,0,0,0,0,0,0,0,0,0,1,2,3,1,0,1,1,1,1,0,0,0,0,3,3,0,0,0,0,0,0,0,0,3,3,0,0,0,0,0,0,0,0,1,3,2,1,1,1,1,1,2,2,1,1,2,3,1,1,1,1,1,1,2,2,1,1,1,1,2,2,3,4,3,1,1,1,2,3,3,3,1,2,2,1,1,2,2,1,0,0,0,3,3,1,4,7,6,6,3,2,4,3,3,3,2,3,5,1,1,1,2,2,2,3,3,0,0,0,3,3,0,0,0,0,0,1,3,2,5,4,2,1,5,6,7,6,6,7,6,6,4,3,3,3,2,3,2,5,1,2,2,2,3,3,4,4,3,2,2,1,0,2,3,1,2,3,3,3,3,2,1,3,2,0,1,3,2,0,0,2,3,1,3,13,12,-1,-1,-1,-1,-1,-1,-1,-1,-1,-1,-1,-1,-1,-1,-1,-1,-1,-1,-1,-1,-1,-1,-1,-1,-1
-1,-1,-1,-1,-1,-1,-1,-1,-1,-1,-1,-1,-1,-1,-1,-1,-1,-1,-1,-1,-1,-1,-1,-1,-1,-1,-1,-1,-1,-1,-1,-1,-1,-1,-1,-1,-1,-1,-1,-1,-1,-1,-1,-1,-1,-1,-1,-1,-1,-1,-1,-1,-1,-1,-1,-1,-1,-1,-1,-1,-1,-1,10,15,5,3,3,3,2,3,2,4,7,3,3,3,2,2,3,4,2,3,1,0,0,1,3,2,2,3,3,3,2,2,1,1,1,3,4,4,4,4,4,4,5,3,4,6,6,6,3,4,4,3,4,7,8,6,3,3,3,3,4,3,1,2,2,5,2,1,1,1,1,1,1,1,1,1,3,2,2,3,1,7,8,6,6,7,7,9,8,7,7,7,9,7,8,8,8,7,8,6,6,6,4,8,8,4,4,4,4,3,0,0,0,3,3,0,0,2,3,1,0,0,0,0,0,0,1,3,2,0,0,3,3,0,0,0,0,1,1,2,2,1,0,0,0,0,0,0,1,3,2,0,0,0,0,0,0,2,3,1,1,2,3,1,1,1,1,1,1,2,2,1,1,1,1,1,1,1,1,0,0,2,3,1,0,0,0,0,0,0,0,0,0,3,3,0,0,0,0,0,0,0,0,3,3,0,0,0,0,0,0,0,0,2,3,1,0,2,3,1,1,1,1,0,0,1,1,1,1,1,1,1,1,1,1,0,0,0,0,1,3,2,3,2,1,2,2,1,2,2,2,0,1,1,1,1,1,1,0,0,0,0,2,3,1,3,4,5,8,6,2,6,5,4,4,2,3,2,2,3,1,1,3,3,5,2,1,1,1,3,2,0,1,1,1,1,3,2,3,4,4,3,2,4,6,4,4,4,6,7,8,5,2,4,5,1,1,3,3,1,3,3,3,2,3,3,5,2,3,1,0,1,3,2,0,1,2,2,2,2,3,2,2,1,1,2,2,1,0,1,3,2,0,3,13,18,-1,-1,-1,-1,-1,-1,-1,-1,-1,-1,-1,-1,-1,-1,-1,-1,-1,-1,-1,-1,-1,-1,-1,-1,-1
-1,-1,-1,-1,-1,-1,-1,-1,-1,-1,-1,-1,-1,-1,-1,-1,-1,-1,-1,-1,-1,-1,-1,-1,-1,-1,-1,-1,-1,-1,-1,-1,-1,-1,-1,-1,-1,-1,-1,-1,-1,-1,-1,-1,-1,-1,-1,-1,-1,-1,-1,-1,-1,-1,-1,-1,-1,-1,-1,-1,-1,-1,-1,11,2,4,4,4,3,2,3,3,6,3,1,1,1,1,4,4,2,1,1,1,1,1,1,3,4,3,3,4,3,3,4,4,1,1,5,4,4,4,3,7,6,3,4,4,4,4,3,6,6,3,4,5,8,6,2,4,5,3,4,4,3,2,1,2,3,1,1,1,1,1,1,2,2,2,2,1,3,2,1,8,7,7,7,5,7,8,9,8,7,8,8,8,5,9,7,8,7,6,4,4,6,8,7,4,4,4,4,3,0,0,0,3,3,0,1,3,2,0,0,0,0,0,1,1,2,2,1,0,0,3,3,0,0,0,0,2,3,1,1,0,0,0,0,0,1,1,2,2,1,0,0,0,0,0,0,1,1,2,2,3,2,0,0,0,0,0,0,1,1,1,1,1,1,1,1,3,2,0,1,3,2,0,0,0,0,0,0,0,0,0,0,3,3,0,0,0,1,1,1,1,1,3,3,0,0,0,0,0,0,0,1,3,2,0,0,3,3,0,0,0,0,0,0,0,0,0,0,0,0,0,0,0,0,1,1,1,1,1,2,3,1,1,2,2,2,2,1,1,1,0,1,1,1,1,1,1,1,1,1,1,1,2,2,1,3,6,7,6,3,6,6,7,6,2,3,1,2,3,1,1,3,3,4,5,1,1,1,1,1,1,3,2,1,1,3,2,5,6,6,3,2,6,7,5,3,4,4,7,8,5,2,4,5,1,0,2,3,1,2,3,5,1,1,3,2,3,3,0,0,2,3,1,0,0,1,0,1,1,1,1,1,0,2,3,1,0,0,2,3,1,0,2,11,7,-1,-1,-1,-1,-1,-1,-1,-1,-1,-1,-1,-1,-1,-1,-1,-1,-1,-1,-1,-1,-1,-1,-1,-1,-1
-1,-1,-1,-1,-1,-1,-1,-1,-1,-1,-1,-1,-1,-1,-1,-1,-1,-1,-1,-1,-1,-1,-1,-1,-1,-1,-1,-1,-1,-1,-1,-1,-1,-1,-1,-1,-1,-1,-1,-1,-1,-1,-1,-1,-1,-1,-1,-1,-1,-1,-1,-1,-1,-1,-1,-1,-1,-1,-1,-1,-1,-1,-1,6,9,4,4,4,3,1,1,3,4,3,1,1,1,3,4,7,7,1,1,1,1,1,1,7,7,3,3,3,3,4,4,3,0,0,2,3,3,3,2,8,8,3,4,4,4,4,5,4,6,4,4,6,6,3,2,6,7,2,4,4,2,2,1,1,1,1,1,1,1,1,1,1,1,1,2,2,2,3,1,6,8,5,5,7,7,9,8,8,9,7,8,7,7,8,8,6,6,7,6,3,7,8,5,4,4,4,4,3,0,0,0,2,3,1,2,3,1,0,0,1,1,1,2,2,1,1,0,0,0,3,3,0,0,0,0,3,3,0,0,0,0,0,0,1,2,2,1,1,0,0,0,0,0,0,0,0,0,1,1,1,1,0,0,0,0,0,0,0,0,0,0,0,0,0,0,3,3,0,1,3,2,1,0,1,1,1,1,0,0,0,0,3,3,0,0,0,2,3,1,3,2,3,3,0,0,0,0,1,0,1,2,3,1,0,0,2,3,1,1,0,0,0,0,0,0,0,0,0,0,0,0,1,1,2,2,1,2,2,1,1,1,3,2,2,2,1,2,2,1,1,2,2,1,1,2,1,2,1,1,2,2,1,2,2,2,4,6,4,6,8,8,8,5,2,3,1,1,1,1,1,1,4,6,4,2,2,3,1,2,2,2,3,2,3,1,3,4,4,4,3,3,6,6,2,3,4,4,6,6,3,2,4,4,2,1,1,2,2,1,3,3,0,2,3,1,3,2,0,0,3,3,0,0,0,0,0,0,0,0,0,0,1,3,2,0,0,1,3,2,0,0,3,8,20,-1,-1,-1,-1,-1,-1,-1,-1,-1,-1,-1,-1,-1,-1,-1,-1,-1,-1,-1,-1,-1,-1,-1,-1,-1
-1,-1,-1,-1,-1,-1,-1,-1,-1,-1,-1,-1,-1,-1,-1,-1,-1,-1,-1,-1,-1,-1,-1,-1,-1,-1,-1,-1,-1,-1,-1,-1,-1,-1,-1,-1,-1,-1,-1,-1,-1,-1,-1,-1,-1,-1,-1,-1,-1,-1,-1,-1,-1,-1,-1,-1,-1,-1,-1,-1,-1,-1,-1,15,6,6,6,4,1,1,1,5,6,4,2,0,0,3,4,5,7,2,2,1,1,2,2,7,4,3,4,3,3,4,6,4,2,0,0,0,3,3,1,11,10,3,4,4,3,5,2,7,7,4,4,4,4,3,1,8,7,2,4,4,2,1,1,5,2,1,1,1,1,1,1,1,1,0,1,2,2,3,2,5,6,7,7,5,7,8,9,9,8,7,7,7,7,8,9,6,6,6,6,3,7,8,7,7,3,4,4,3,0,0,0,1,3,2,3,3,0,0,0,2,3,1,1,1,1,1,1,1,1,3,3,0,0,0,0,3,3,0,0,0,0,0,0,2,3,1,0,0,0,0,0,0,0,0,0,0,0,0,0,0,0,0,0,0,0,0,0,0,0,0,0,0,0,0,0,2,3,1,1,1,2,2,1,2,3,2,2,1,0,1,1,3,2,0,0,1,3,2,0,3,3,3,3,0,0,0,0,2,2,2,3,3,0,0,0,1,1,2,2,1,0,0,0,0,0,0,0,0,0,0,0,2,3,1,1,1,1,2,2,1,1,2,3,1,2,2,1,3,2,2,3,1,0,0,1,0,1,1,0,1,2,2,1,1,4,4,4,4,8,9,10,8,2,1,3,2,0,0,0,0,2,4,6,6,5,5,2,1,1,2,3,3,4,4,3,2,6,6,6,5,3,6,6,5,1,3,4,4,4,5,1,7,7,1,2,2,1,1,1,3,2,1,3,2,2,3,1,0,0,3,3,0,0,0,0,0,0,0,0,0,0,2,3,1,0,0,2,3,1,0,0,3,6,20,-1,-1,-1,-1,-1,-1,-1,-1,-1,-1,-1,-1,-1,-1,-1,-1,-1,-1,-1,-1,-1,-1,-1,-1,-1
-1,-1,-1,-1,-1,-1,-1,-1,-1,-1,-1,-1,-1,-1,-1,-1,-1,-1,-1,-1,-1,-1,-1,-1,-1,-1,-1,-1,-1,-1,-1,-1,-1,-1,-1,-1,-1,-1,-1,-1,-1,-1,-1,-1,-1,-1,-1,-1,-1,-1,-1,-1,-1,-1,-1,-1,-1,-1,-1,-1,-1,-1,-1,14,5,4,4,4,3,1,2,7,5,4,3,0,1,2,4,4,1,3,2,0,0,1,4,2,2,3,4,3,3,4,6,10,7,2,3,5,5,2,1,10,10,3,4,4,3,3,2,7,7,4,4,6,6,5,1,6,7,2,3,6,5,1,1,4,6,2,1,1,1,1,1,2,2,1,1,1,3,4,3,5,6,7,7,7,7,8,8,9,9,7,8,7,7,8,8,4,4,4,4,3,6,8,7,7,3,4,4,5,1,1,0,0,3,3,3,3,0,0,0,3,3,0,0,0,1,4,2,2,1,3,2,0,0,0,0,3,3,0,0,0,0,0,0,3,3,0,0,0,0,0,0,0,0,0,0,0,0,0,0,0,0,0,0,0,0,0,1,1,1,1,1,1,1,1,1,1,1,2,3,1,1,1,2,2,2,1,3,2,0,1,4,2,2,1,1,2,3,1,0,2,3,3,2,0,0,0,0,3,2,3,2,3,1,1,0,1,1,2,3,1,0,0,0,0,0,0,0,0,0,0,0,3,4,4,2,2,4,2,1,5,2,2,3,1,1,1,2,3,5,3,2,0,0,0,0,0,0,1,2,1,1,2,2,2,1,2,6,8,13,12,10,10,2,0,2,3,1,2,2,2,5,6,4,4,3,1,5,2,2,5,4,3,4,6,5,3,4,4,3,2,3,6,6,5,1,3,4,3,5,2,1,8,10,2,1,2,3,1,0,1,1,2,2,1,3,2,0,1,1,3,2,0,0,1,1,1,1,1,1,1,1,3,2,0,0,1,3,2,0,0,0,2,2,6,-1,-1,-1,-1,-1,-1,-1,-1,-1,-1,-1,-1,-1,-1,-1,-1,-1,-1,-1,-1,-1,-1,-1,-1,-1
-1,-1,-1,-1,-1,-1,-1,-1,-1,-1,-1,-1,-1,-1,-1,-1,-1,-1,-1,-1,-1,-1,-1,-1,-1,-1,-1,-1,-1,-1,-1,-1,-1,-1,-1,-1,-1,-1,-1,-1,-1,-1,-1,-1,-1,-1,-1,-1,-1,-1,-1,-1,-1,-1,-1,-1,-1,-1,-1,-1,-1,-1,-1,-1,3,3,4,4,3,1,2,3,7,6,6,4,2,1,3,3,1,3,2,1,1,1,1,1,1,3,4,3,3,3,6,10,4,5,6,2,1,1,0,5,4,4,4,4,4,3,2,4,6,3,5,6,6,4,2,5,4,2,4,6,3,2,2,3,3,2,1,0,0,0,0,1,1,3,2,0,2,4,6,4,6,7,7,6,6,7,8,9,8,8,8,8,5,8,7,4,4,4,4,3,5,8,7,6,4,2,5,3,3,1,0,0,3,3,3,3,0,0,0,3,3,0,0,0,1,1,1,2,2,1,1,0,0,0,0,3,3,0,0,0,0,0,0,3,3,0,0,0,0,0,0,0,0,0,0,0,0,0,0,0,0,0,1,1,1,1,2,2,1,1,1,1,2,2,2,2,1,1,3,2,0,1,0,1,0,1,2,3,1,1,1,1,1,3,2,2,3,1,0,1,1,1,1,0,0,0,0,3,4,3,2,1,3,2,0,2,3,1,1,1,0,0,0,0,0,0,0,0,0,0,0,3,3,1,1,1,1,1,0,4,7,2,2,2,1,1,1,4,3,1,1,1,1,1,1,1,1,1,1,2,2,2,1,1,3,2,6,8,10,12,9,6,2,1,1,1,1,2,3,2,1,3,3,5,3,2,1,1,1,1,3,3,5,6,4,3,4,4,2,2,3,6,6,2,3,3,4,5,2,3,1,5,4,2,2,4,5,2,1,1,1,1,1,2,2,1,0,2,3,1,1,0,1,2,2,1,1,1,1,1,1,1,1,0,1,2,2,1,0,0,0,2,6,9,-1,-1,-1,-1,-1,-1,-1,-1,-1,-1,-1,-1,-1,-1,-1,-1,-1,-1,-1,-1,-1,-1,-1,-1,-1
-1,-1,-1,-1,-1,-1,-1,-1,-1,-1,-1,-1,-1,-1,-1,-1,-1,-1,-1,-1,-1,-1,-1,-1,-1,-1,-1,-1,-1,-1,-1,-1,-1,-1,-1,-1,-1,-1,-1,-1,-1,-1,-1,-1,-1,-1,-1,-1,-1,-1,-1,-1,-1,-1,-1,-1,-1,-1,-1,-1,-1,-1,-1,-1,4,3,4,6,3,2,1,3,4,4,3,0,1,0,3,3,2,2,1,2,2,1,1,2,2,1,3,3,3,2,3,8,8,3,6,5,1,1,1,1,3,4,4,6,6,3,3,4,4,3,2,4,6,6,5,2,4,2,3,6,4,2,2,3,3,2,2,1,0,1,1,1,1,3,2,0,2,7,6,3,3,6,6,4,6,8,7,8,8,8,8,7,7,7,7,6,3,4,4,3,5,8,7,7,6,1,3,3,3,1,0,0,3,3,3,3,0,0,0,3,3,0,0,0,0,0,0,3,3,0,0,0,0,0,0,3,3,0,0,0,0,0,0,3,3,0,1,1,1,1,1,1,1,0,0,1,1,1,1,1,1,1,2,2,1,1,1,1,1,1,1,1,1,2,2,1,1,1,2,3,1,2,2,1,2,2,1,1,1,2,2,1,1,2,3,1,3,2,0,0,0,0,0,0,0,0,0,2,2,2,1,0,3,3,0,3,3,0,0,0,0,0,0,0,0,0,0,0,0,1,1,3,2,0,0,0,0,0,0,5,3,1,1,1,1,1,1,6,6,2,2,1,1,1,1,3,2,1,2,2,2,3,1,0,3,4,6,9,10,9,7,3,2,2,1,2,3,2,3,2,0,2,3,2,3,2,2,1,1,1,3,3,3,3,4,3,3,4,3,1,5,7,7,5,2,3,4,4,2,2,2,1,3,2,3,4,3,0,0,0,0,1,2,2,1,1,1,3,2,0,0,0,2,3,1,1,0,1,0,0,0,0,0,1,2,2,1,0,0,0,0,5,6,7,19,-1,-1,-1,-1,-1,-1,-1,-1,-1,-1,-1,-1,-1,-1,-1,-1,-1,-1,-1,-1,-1,-1,-1,-1
-1,-1,-1,-1,-1,-1,-1,-1,-1,-1,-1,-1,-1,-1,-1,-1,-1,-1,-1,-1,-1,-1,-1,-1,-1,-1,-1,-1,-1,-1,-1,-1,-1,-1,-1,-1,-1,-1,-1,-1,-1,-1,-1,-1,-1,-1,-1,-1,-1,-1,-1,-1,-1,-1,-1,-1,-1,-1,-1,-1,-1,-1,-1,-1,4,3,4,6,4,2,2,1,3,4,3,0,0,0,3,4,3,2,2,3,1,0,0,1,1,2,2,3,2,5,2,10,9,4,6,4,3,3,1,1,3,2,5,7,7,5,3,4,3,2,3,4,6,6,2,5,3,2,4,4,3,3,1,6,6,1,2,2,1,2,2,2,2,2,1,1,2,4,4,2,2,6,7,6,6,8,8,6,8,8,8,7,7,8,7,3,5,6,4,3,4,5,7,7,5,2,3,3,3,0,0,0,3,3,3,3,0,0,0,3,3,0,0,0,0,0,0,3,3,0,0,0,0,0,0,3,3,0,0,0,0,0,0,2,3,1,2,2,1,1,1,3,2,1,1,2,2,1,1,1,1,1,1,1,1,2,2,1,1,1,1,1,3,2,2,1,2,1,3,2,0,1,1,1,1,1,1,2,2,1,1,3,2,1,3,2,2,3,1,0,0,0,0,0,0,0,0,1,0,1,0,1,3,2,0,3,3,0,0,0,0,0,0,0,0,0,0,0,1,2,2,1,1,0,0,0,0,0,0,2,3,1,1,1,1,1,1,3,5,1,1,1,1,0,0,2,3,2,2,1,1,3,2,1,5,6,8,9,9,8,6,3,0,1,1,2,2,1,3,2,0,1,3,2,2,2,1,3,3,3,2,3,4,3,3,2,2,4,4,3,2,6,5,4,2,3,4,4,3,1,1,2,2,2,3,3,2,1,1,1,1,2,2,1,1,2,2,1,1,0,0,1,3,2,0,2,2,2,0,0,1,1,1,2,2,1,0,0,0,0,0,5,10,1,12,-1,-1,-1,-1,-1,-1,-1,-1,-1,-1,-1,-1,-1,-1,-1,-1,-1,-1,-1,-1,-1,-1,-1,-1
-1,-1,-1,-1,-1,-1,-1,-1,-1,-1,-1,-1,-1,-1,-1,-1,-1,-1,-1,-1,-1,-1,-1,-1,-1,-1,-1,-1,-1,-1,-1,-1,-1,-1,-1,-1,-1,-1,-1,-1,-1,-1,-1,-1,-1,-1,-1,-1,-1,-1,-1,-1,-1,-1,-1,-1,-1,-1,-1,-1,-1,-1,-1,-1,10,3,4,4,4,3,1,1,3,3,3,1,1,1,3,2,2,2,3,3,0,0,1,0,1,1,3,2,3,4,3,8,8,3,6,6,4,3,1,1,1,1,3,6,7,6,3,3,1,5,4,4,4,4,3,3,3,3,4,3,5,3,2,3,3,2,2,1,0,1,1,1,2,3,1,2,2,2,3,2,3,6,6,6,7,8,9,6,5,9,8,7,7,8,9,5,2,6,4,3,6,7,7,6,3,3,2,3,2,0,0,0,3,3,3,3,0,0,0,3,3,0,0,0,0,0,0,3,3,0,0,0,0,0,0,3,3,0,0,0,0,0,0,1,1,1,1,1,1,1,1,2,5,2,2,1,1,1,1,1,1,0,0,2,3,1,1,0,0,0,0,0,2,3,1,1,1,1,1,1,1,1,1,1,2,2,1,1,1,2,2,2,3,1,2,3,1,2,2,1,0,0,0,0,0,0,0,0,0,0,1,2,2,1,0,3,3,0,0,0,0,0,0,0,0,0,0,1,2,2,1,0,0,0,0,0,0,0,0,1,1,1,1,1,1,1,1,5,2,1,1,2,2,1,0,1,1,1,1,0,0,3,3,2,4,6,8,9,8,6,4,2,2,1,2,2,2,2,1,1,0,0,2,3,1,2,2,2,5,2,3,2,5,2,3,2,4,6,6,3,2,6,7,6,5,2,4,5,1,2,2,1,1,3,4,3,1,2,2,1,1,1,1,2,3,1,1,0,0,0,1,2,2,1,0,2,2,2,0,1,2,2,1,1,1,0,0,0,0,0,1,8,11,10,6,-1,-1,-1,-1,-1,-1,-1,-1,-1,-1,-1,-1,-1,-1,-1,-1,-1,-1,-1,-1,-1,-1,-1,-1
-1,-1,-1,-1,-1,-1,-1,-1,-1,-1,-1,-1,-1,-1,-1,-1,-1,-1,-1,-1,-1,-1,-1,-1,-1,-1,-1,-1,-1,-1,-1,-1,-1,-1,-1,-1,-1,-1,-1,-1,-1,-1,-1,-1,-1,-1,-1,-1,-1,-1,-1,-1,-1,-1,-1,-1,-1,-1,-1,-1,-1,-1,-1,-1,-1,3,4,6,4,3,3,1,1,2,3,3,3,1,0,0,1,3,4,3,0,0,2,2,2,0,3,3,3,4,3,7,6,5,7,7,6,3,2,3,1,2,2,3,6,4,4,3,0,3,4,4,4,3,3,4,4,3,3,3,2,3,2,2,2,2,1,1,1,1,1,1,2,3,1,3,1,1,3,2,3,4,4,4,6,9,7,8,7,7,8,7,7,8,8,3,3,4,4,3,6,7,5,6,3,2,2,3,1,0,0,0,3,3,3,3,0,0,0,3,3,0,0,0,0,0,0,3,3,0,0,0,0,0,0,3,3,0,0,0,0,0,0,0,0,0,1,1,2,2,1,3,2,1,1,1,2,2,1,3,2,1,1,3,2,0,0,0,0,0,1,0,1,2,2,2,2,1,2,2,1,1,1,0,1,2,2,1,1,1,2,2,2,2,1,2,2,1,2,2,1,1,1,1,0,0,0,1,1,1,2,2,1,0,0,3,3,0,0,0,0,0,0,0,0,0,0,2,3,1,0,0,0,0,0,0,0,0,0,0,0,0,0,0,0,0,0,2,3,1,1,1,2,2,1,1,1,1,1,1,1,2,3,3,4,7,9,9,6,4,5,3,3,2,2,2,2,1,0,0,0,0,1,3,2,1,1,5,2,5,2,5,2,3,2,1,3,6,4,3,3,6,6,6,3,2,3,2,2,2,1,0,1,3,4,3,2,2,1,0,0,0,0,3,3,0,0,0,0,1,2,2,1,0,0,1,0,1,1,2,2,1,0,0,0,0,0,0,1,1,2,7,8,4,3,-1,-1,-1,-1,-1,-1,-1,-1,-1,-1,-1,-1,-1,-1,-1,-1,-1,-1,-1,-1,-1,-1,-1,-1
-1,-1,-1,-1,-1,-1,-1,-1,-1,-1,-1,-1,-1,-1,-1,-1,-1,-1,-1,-1,-1,-1,-1,-1,-1,-1,-1,-1,-1,-1,-1,-1,-1,-1,-1,-1,-1,-1,-1,-1,-1,-1,-1,-1,-1,-1,-1,-1,-1,-1,-1,-1,-1,-1,-1,-1,-1,-1,-1,-1,-1,-1,-1,-1,-1,3,4,5,7,3,3,1,1,2,2,4,4,2,2,2,1,5,6,2,1,1,3,2,3,0,2,3,3,4,4,4,5,3,6,7,7,5,3,3,1,0,1,3,4,4,6,5,1,3,4,4,4,3,3,4,3,2,2,2,2,2,2,2,3,1,2,2,1,1,2,2,2,2,3,4,3,2,2,1,5,6,4,4,4,7,8,7,8,5,7,7,5,8,7,4,3,4,4,3,4,7,8,6,5,1,3,3,0,0,0,0,3,3,3,3,0,0,0,3,3,0,0,0,0,0,0,3,3,0,0,0,0,0,0,3,3,0,0,0,0,0,0,0,0,1,2,2,1,1,1,1,1,1,1,1,1,1,1,2,2,2,2,1,1,1,1,1,1,1,2,1,2,1,1,1,1,1,1,1,1,2,2,1,1,1,1,2,2,1,1,3,2,2,2,1,3,2,1,1,1,1,2,2,1,1,0,2,3,1,1,1,0,0,0,3,3,0,0,0,0,0,0,0,1,1,1,3,2,0,0,0,0,0,0,0,0,0,0,0,0,0,0,0,0,0,0,1,1,2,2,1,1,1,2,1,2,1,1,2,2,1,3,4,4,7,9,9,5,2,4,5,3,2,2,3,1,0,0,0,0,1,1,3,2,0,1,3,2,3,3,3,2,1,1,2,7,7,6,3,2,4,6,4,2,3,2,3,2,1,1,1,2,2,3,3,3,1,0,0,0,0,0,2,3,1,0,0,0,2,3,1,0,0,0,1,1,1,2,2,1,0,0,0,0,0,0,0,2,3,1,7,1,5,6,-1,-1,-1,-1,-1,-1,-1,-1,-1,-1,-1,-1,-1,-1,-1,-1,-1,-1,-1,-1,-1,-1,-1,-1
-1,-1,-1,-1,-1,-1,-1,-1,-1,-1,-1,-1,-1,-1,-1,-1,-1,-1,-1,-1,-1,-1,-1,-1,-1,-1,-1,-1,-1,-1,-1,-1,-1,-1,-1,-1,-1,-1,-1,-1,-1,-1,-1,-1,-1,-1,-1,-1,-1,-1,-1,-1,-1,-1,-1,-1,-1,-1,-1,-1,-1,-1,-1,-1,-1,4,4,6,4,4,3,2,3,1,2,4,6,4,2,3,1,4,6,5,1,3,3,2,2,0,1,3,4,4,4,4,5,3,4,6,6,4,4,3,2,2,1,3,3,5,6,4,2,3,4,4,4,3,3,2,2,2,2,2,2,2,1,5,2,3,2,1,1,1,1,4,7,2,5,6,2,1,2,3,2,6,5,3,4,6,7,7,7,7,5,4,6,8,7,4,4,4,4,3,4,8,8,4,3,1,3,2,0,0,1,0,3,3,3,3,0,0,0,3,3,0,0,0,0,0,0,3,3,0,0,0,0,0,0,3,3,0,0,0,0,0,0,0,0,2,3,1,1,2,2,1,1,2,2,1,0,2,3,2,2,1,1,1,2,2,1,1,1,1,1,0,1,0,0,1,1,1,1,0,2,3,1,1,1,2,2,1,1,1,2,4,5,1,3,2,3,3,0,1,1,1,1,1,3,2,0,3,3,0,0,0,0,0,0,3,3,0,0,0,0,0,0,1,2,2,1,1,1,0,0,0,0,0,0,0,0,0,0,0,0,0,0,0,0,0,0,1,1,1,1,1,2,2,1,1,1,0,0,1,3,2,3,4,4,5,8,7,3,0,1,4,2,2,2,3,1,1,1,1,1,2,3,1,1,0,1,3,2,3,3,3,1,0,0,2,4,7,8,4,2,3,6,5,1,2,3,2,3,1,1,1,1,2,3,3,3,0,0,1,0,1,0,1,3,2,0,0,0,3,3,1,1,1,1,2,3,1,1,1,0,0,0,0,0,0,0,1,3,2,0,3,9,3,11,17,-1,-1,-1,-1,-1,-1,-1,-1,-1,-1,-1,-1,-1,-1,-1,-1,-1,-1,-1,-1,-1,-1,-1
-1,-1,-1,-1,-1,-1,-1,-1,-1,-1,-1,-1,-1,-1,-1,-1,-1,-1,-1,-1,-1,-1,-1,-1,-1,-1,-1,-1,-1,-1,-1,-1,-1,-1,-1,-1,-1,-1,-1,-1,-1,-1,-1,-1,-1,-1,-1,-1,-1,-1,-1,-1,-1,-1,-1,-1,-1,-1,-1,-1,-1,-1,-1,-1,-1,10,4,8,6,9,7,4,6,1,3,4,4,3,2,6,4,6,6,3,1,2,4,1,1,0,0,3,4,4,5,4,7,3,6,6,6,6,6,6,3,2,2,2,2,3,3,4,5,3,4,4,4,6,5,3,1,3,2,3,2,2,3,2,3,3,5,2,1,1,0,7,7,0,3,4,3,1,3,2,2,4,5,3,6,6,6,7,9,7,8,4,6,8,5,6,6,6,4,3,6,10,7,4,2,2,3,1,0,0,1,4,4,2,3,3,0,0,1,3,2,0,0,0,0,0,0,3,3,0,0,0,0,0,0,3,3,0,0,0,0,1,1,1,1,3,2,0,1,3,2,1,1,1,2,2,1,2,5,5,3,2,1,1,1,1,1,2,3,1,0,1,1,1,1,2,5,4,1,0,3,3,1,3,2,1,1,1,2,2,2,7,4,0,2,3,2,3,1,2,2,2,2,1,2,3,1,2,3,1,1,0,0,0,0,2,3,1,1,0,0,0,0,2,3,1,0,0,0,0,0,0,0,0,0,0,0,0,0,1,0,1,0,0,0,0,1,2,2,1,2,2,1,1,1,3,2,1,1,1,2,3,2,5,3,7,8,6,2,1,3,1,2,2,2,3,0,4,2,4,1,2,3,1,1,1,2,3,3,3,3,2,0,1,1,7,7,10,5,3,3,3,4,2,2,2,2,2,1,0,0,1,1,2,5,3,3,0,0,1,2,1,0,0,3,3,1,0,1,2,3,2,5,4,1,3,3,0,0,0,0,0,0,0,0,0,0,2,3,1,0,4,14,7,15,6,-1,-1,-1,-1,-1,-1,-1,-1,-1,-1,-1,-1,-1,-1,-1,-1,-1,-1,-1,-1,-1,-1,-1
-1,-1,-1,-1,-1,-1,-1,-1,-1,-1,-1,-1,-1,-1,-1,-1,-1,-1,-1,-1,-1,-1,-1,-1,-1,-1,-1,-1,-1,-1,-1,-1,-1,-1,-1,-1,-1,-1,-1,-1,-1,-1,-1,-1,-1,-1,-1,-1,-1,-1,-1,-1,-1,-1,-1,-1,-1,-1,-1,-1,-1,-1,-1,-1,-1,-1,8,14,2,16,18,7,6,2,3,4,3,2,2,8,9,8,7,4,3,5,3,2,1,0,0,2,3,3,2,5,4,4,6,4,4,6,7,6,3,2,5,2,2,3,2,3,7,6,4,3,3,3,5,4,2,3,3,3,3,2,3,1,4,3,5,2,2,2,1,8,6,1,3,3,1,1,1,1,2,3,5,6,6,6,3,12,9,8,7,4,3,5,5,7,7,6,6,6,6,7,7,5,1,3,3,0,0,0,1,2,5,1,3,3,0,0,2,3,1,0,0,0,0,0,0,3,3,0,0,0,0,0,0,3,3,0,0,0,0,2,3,1,1,0,0,0,2,2,2,6,5,2,2,1,0,2,3,5,3,2,2,4,2,1,1,3,2,1,1,2,2,1,1,2,2,2,1,1,2,3,1,2,2,1,1,2,3,2,3,6,6,1,1,2,2,1,1,1,1,1,1,3,2,2,3,2,1,3,2,0,0,0,0,1,1,3,2,0,0,0,0,3,3,0,0,0,0,0,0,0,0,0,0,0,0,0,0,1,2,1,0,0,0,1,2,2,1,0,1,1,1,1,2,5,2,1,1,3,2,1,2,3,4,8,9,7,2,1,2,2,1,2,4,2,2,1,1,1,1,1,1,1,3,3,3,2,3,4,3,1,1,3,2,6,11,6,7,3,4,5,3,4,1,2,1,1,0,0,0,2,4,5,4,4,3,0,0,1,0,1,0,0,3,3,2,2,2,1,1,5,2,1,1,3,3,0,0,0,0,0,0,0,0,0,0,3,3,0,0,6,15,21,7,1,-1,-1,-1,-1,-1,-1,-1,-1,-1,-1,-1,-1,-1,-1,-1,-1,-1,-1,-1,-1,-1,-1,-1
-1,-1,-1,-1,-1,-1,-1,-1,-1,-1,-1,-1,-1,-1,-1,-1,-1,-1,-1,-1,-1,-1,-1,-1,-1,-1,-1,-1,-1,-1,-1,-1,-1,-1,-1,-1,-1,-1,-1,-1,-1,-1,-1,-1,-1,-1,-1,-1,-1,-1,-1,-1,-1,-1,-1,-1,-1,-1,-1,-1,-1,-1,-1,-1,-1,-1,-1,11,11,10,9,5,4,3,3,4,3,1,2,7,6,6,7,6,5,2,2,3,3,0,0,1,2,2,2,2,3,6,7,6,4,7,7,7,7,2,4,5,1,1,2,3,6,6,4,3,1,3,4,4,3,2,3,2,3,2,3,3,1,3,2,3,1,2,1,7,7,2,2,3,1,1,1,1,2,2,1,3,4,4,3,11,12,6,7,6,4,7,7,6,6,6,6,4,4,4,4,3,0,3,3,0,0,0,0,3,3,0,3,3,0,0,3,3,0,0,0,0,0,0,1,3,2,0,0,0,0,0,0,3,3,0,0,0,1,3,2,2,3,2,2,1,2,2,1,5,3,1,1,0,1,0,1,3,3,0,0,2,3,1,0,3,3,0,0,1,1,1,1,1,1,1,2,3,1,2,3,1,1,2,2,2,4,5,3,4,4,2,2,1,1,2,2,1,1,0,0,3,3,1,3,2,0,2,3,1,0,0,0,0,0,3,3,0,0,0,0,3,3,0,0,0,0,0,0,0,0,0,0,0,0,0,0,1,0,1,0,0,1,2,2,1,0,0,0,0,0,0,0,2,3,1,0,2,3,1,1,1,3,7,8,6,3,1,1,3,2,1,1,3,2,0,0,0,0,0,0,0,3,3,2,2,3,4,4,3,1,2,5,4,3,3,3,3,3,3,3,1,0,0,0,0,1,1,1,3,1,3,3,4,3,1,0,0,0,0,0,0,3,3,2,2,2,0,0,3,3,0,0,3,3,0,0,0,0,0,0,0,0,0,0,3,3,0,0,4,2,11,17,9,-1,-1,-1,-1,-1,-1,-1,-1,-1,-1,-1,-1,-1,-1,-1,-1,-1,-1,-1,-1,-1,-1,-1
-1,-1,-1,-1,-1,-1,-1,-1,-1,-1,-1,-1,-1,-1,-1,-1,-1,-1,-1,-1,-1,-1,-1,-1,-1,-1,-1,-1,-1,-1,-1,-1,-1,-1,-1,-1,-1,-1,-1,-1,-1,-1,-1,-1,-1,-1,-1,-1,-1,-1,-1,-1,-1,-1,-1,-1,-1,-1,-1,-1,-1,-1,-1,-1,-1,-1,-1,2,13,9,12,5,7,3,4,4,3,1,1,3,3,3,3,4,3,2,2,7,6,0,0,0,1,2,2,1,5,7,7,4,6,7,6,9,11,3,6,6,5,2,2,7,5,4,3,2,2,2,4,6,5,1,2,2,2,2,1,1,1,3,2,2,2,1,1,7,6,3,2,2,2,2,2,1,1,1,2,2,3,4,3,10,12,6,6,4,3,5,5,6,6,7,7,4,3,6,6,2,1,3,2,0,0,0,0,3,3,0,3,3,0,0,3,3,0,0,0,0,1,1,2,2,1,0,0,0,0,0,0,3,3,0,0,1,2,2,1,3,2,1,1,1,1,2,2,3,3,0,0,1,2,2,1,3,3,0,0,2,3,1,0,2,3,1,1,1,0,0,0,0,0,1,3,2,1,3,2,2,3,1,2,2,4,4,2,7,7,3,1,1,2,2,1,2,3,1,0,3,3,1,2,2,1,1,3,2,0,1,1,1,1,2,3,1,0,0,0,3,3,0,0,0,0,0,0,0,0,0,0,0,0,0,0,0,0,0,0,1,2,2,1,0,0,0,0,0,0,0,0,1,2,2,1,1,1,2,2,1,1,5,6,4,2,3,2,2,3,1,1,2,3,1,0,1,0,1,0,0,3,3,1,2,3,6,6,5,1,2,6,5,2,1,3,3,3,3,3,0,0,0,0,1,2,2,1,1,3,3,3,3,2,2,1,0,0,0,0,1,3,2,1,0,1,0,0,3,3,0,0,3,3,0,0,0,0,0,0,0,0,0,0,3,3,0,0,2,4,8,9,6,-1,-1,-1,-1,-1,-1,-1,-1,-1,-1,-1,-1,-1,-1,-1,-1,-1,-1,-1,-1,-1,-1,-1
-1,-1,-1,-1,-1,-1,-1,-1,-1,-1,-1,-1,-1,-1,-1,-1,-1,-1,-1,-1,-1,-1,-1,-1,-1,-1,-1,-1,-1,-1,-1,-1,-1,-1,-1,-1,-1,-1,-1,-1,-1,-1,-1,-1,-1,-1,-1,-1,-1,-1,-1,-1,-1,-1,-1,-1,-1,-1,-1,-1,-1,-1,-1,-1,-1,-1,-1,21,10,7,6,13,9,4,6,4,3,2,1,3,2,2,2,4,3,3,5,6,7,1,1,0,0,1,1,2,3,5,5,3,4,5,6,9,7,6,6,6,4,2,1,3,6,4,3,1,2,2,4,6,2,3,2,3,2,3,2,0,0,2,3,1,1,1,1,2,5,3,2,2,1,2,1,1,4,2,2,2,3,4,3,8,9,7,6,3,4,7,7,6,6,6,6,3,2,6,7,5,1,1,1,0,0,0,0,3,3,0,3,3,0,0,3,3,0,0,0,1,2,2,1,1,0,0,0,0,0,0,0,2,3,1,1,2,2,1,2,2,1,0,0,1,3,2,3,3,3,1,0,2,3,1,2,3,5,1,1,2,3,1,1,1,1,1,2,2,1,1,1,1,1,2,2,1,2,2,1,3,2,2,2,3,4,4,3,7,8,3,2,3,1,1,1,5,3,2,1,2,3,1,1,2,2,1,2,3,1,2,2,3,2,1,3,2,0,0,0,3,3,0,0,0,0,0,0,0,0,0,0,0,0,0,0,0,0,0,0,2,3,1,0,0,0,0,0,0,0,0,0,0,1,1,2,2,1,1,1,2,2,1,3,3,3,4,3,1,1,2,2,1,2,2,1,2,4,2,0,0,2,3,1,1,5,6,4,2,1,3,4,3,2,2,1,3,2,3,3,0,0,0,0,2,3,1,0,1,3,2,2,3,1,2,2,1,0,0,0,2,3,1,0,0,0,0,0,3,3,0,0,2,3,1,0,1,1,1,1,0,0,0,0,3,3,0,0,1,5,9,2,9,12,-1,-1,-1,-1,-1,-1,-1,-1,-1,-1,-1,-1,-1,-1,-1,-1,-1,-1,-1,-1,-1,-1
-1,-1,-1,-1,-1,-1,-1,-1,-1,-1,-1,-1,-1,-1,-1,-1,-1,-1,-1,-1,-1,-1,-1,-1,-1,-1,-1,-1,-1,-1,-1,-1,-1,-1,-1,-1,-1,-1,-1,-1,-1,-1,-1,-1,-1,-1,-1,-1,-1,-1,-1,-1,-1,-1,-1,-1,-1,-1,-1,-1,-1,-1,-1,-1,-1,-1,-1,14,9,6,11,29,8,6,6,4,3,3,2,2,1,1,3,3,3,3,3,4,3,3,1,0,0,0,0,0,5,7,7,4,4,7,7,5,5,7,7,5,6,3,2,3,4,3,2,2,1,3,4,4,3,2,3,2,3,2,3,1,1,1,2,2,1,1,1,2,1,2,1,1,2,1,1,2,2,2,4,2,5,4,2,7,7,8,6,3,4,6,6,7,7,6,6,3,2,4,6,3,0,0,0,0,0,1,1,3,2,0,3,3,0,0,3,3,0,0,0,2,3,1,0,0,0,0,0,0,0,0,0,1,2,2,2,2,1,2,2,1,1,1,1,3,4,3,3,3,3,1,1,3,2,2,2,3,3,1,2,2,1,1,1,2,2,1,1,1,1,1,1,1,1,1,2,2,1,2,2,1,2,2,3,4,4,3,2,7,8,3,4,4,3,1,1,2,3,1,2,2,2,2,1,1,2,2,1,1,1,1,1,2,3,1,3,3,0,0,0,3,3,0,0,0,0,0,0,0,0,0,0,0,0,0,0,0,0,0,1,3,2,0,0,0,0,0,0,0,0,0,0,1,1,1,1,1,2,2,1,1,1,1,3,2,5,4,2,0,0,1,2,2,1,1,1,6,5,2,0,0,2,3,1,0,3,4,3,3,1,1,5,3,2,1,2,3,1,2,3,1,1,1,1,3,2,0,0,2,3,1,1,2,2,1,2,2,1,0,1,3,2,0,0,0,0,0,0,3,3,0,0,1,2,2,1,2,2,3,2,0,0,0,0,3,3,0,0,2,11,9,6,6,6,-1,-1,-1,-1,-1,-1,-1,-1,-1,-1,-1,-1,-1,-1,-1,-1,-1,-1,-1,-1,-1,-1
-1,-1,-1,-1,-1,-1,-1,-1,-1,-1,-1,-1,-1,-1,-1,-1,-1,-1,-1,-1,-1,-1,-1,-1,-1,-1,-1,-1,-1,-1,-1,-1,-1,-1,-1,-1,-1,-1,-1,-1,-1,-1,-1,-1,-1,-1,-1,-1,-1,-1,-1,-1,-1,-1,-1,-1,-1,-1,-1,-1,-1,-1,-1,-1,-1,-1,-1,-1,6,7,1,20,17,7,7,6,3,1,1,1,0,1,3,3,2,2,2,3,2,2,1,0,0,0,0,2,5,7,6,4,4,6,6,7,8,5,8,8,8,6,2,0,2,3,1,1,2,4,6,4,5,1,2,2,2,2,1,1,2,2,1,2,2,2,2,1,2,3,1,1,1,1,3,2,1,1,1,3,4,3,3,6,6,8,6,3,4,4,4,6,6,7,6,2,2,4,6,2,1,0,0,0,0,2,3,1,1,0,3,3,0,0,3,3,0,0,1,3,2,0,0,0,0,0,0,0,0,0,0,0,1,1,1,1,2,3,2,2,1,1,0,3,4,3,3,3,3,1,2,2,2,2,1,5,3,2,1,1,2,2,1,1,1,1,1,3,2,0,0,0,0,2,3,1,2,3,1,2,3,3,4,4,4,3,1,7,7,4,7,6,3,2,2,1,2,2,1,2,2,1,1,3,2,2,2,1,0,0,0,1,3,2,3,3,0,0,0,3,3,0,0,0,0,0,0,0,0,0,0,0,0,0,0,0,0,1,2,2,1,0,0,0,0,0,0,0,0,0,0,2,3,2,2,1,1,1,2,2,1,3,1,2,3,5,1,1,1,1,2,2,1,1,1,4,5,1,0,0,2,3,1,0,3,4,4,3,2,1,2,5,1,0,2,3,1,1,1,1,1,1,1,1,1,1,1,3,2,0,0,1,3,2,1,2,2,1,2,3,1,0,0,0,0,0,0,3,3,0,0,0,1,3,3,3,1,3,3,0,0,0,0,3,3,0,0,2,1,1,4,1,8,-1,-1,-1,-1,-1,-1,-1,-1,-1,-1,-1,-1,-1,-1,-1,-1,-1,-1,-1,-1,-1,-1
-1,-1,-1,-1,-1,-1,-1,-1,-1,-1,-1,-1,-1,-1,-1,-1,-1,-1,-1,-1,-1,-1,-1,-1,-1,-1,-1,-1,-1,-1,-1,-1,-1,-1,-1,-1,-1,-1,-1,-1,-1,-1,-1,-1,-1,-1,-1,-1,-1,-1,-1,-1,-1,-1,-1,-1,-1,-1,-1,-1,-1,-1,-1,-1,-1,-1,-1,-1,10,5,2,14,10,6,8,7,3,0,0,2,2,2,3,3,1,0,1,5,2,1,1,1,1,1,0,5,2,6,4,4,4,6,6,8,7,7,9,9,7,4,3,3,5,3,1,0,1,7,6,5,2,3,2,3,2,3,2,0,1,3,2,1,1,1,1,2,2,2,1,0,1,0,2,2,2,2,2,2,4,6,5,3,4,6,6,3,3,4,4,4,4,6,6,3,2,4,6,4,2,0,0,0,0,3,3,0,0,0,3,3,0,0,3,3,0,1,2,2,1,0,0,0,0,0,0,0,0,0,0,0,0,0,0,0,3,4,3,1,2,2,1,3,4,4,3,3,3,2,3,2,3,2,1,4,6,1,2,2,1,1,2,2,1,0,0,2,3,1,1,1,1,3,2,1,3,2,1,5,3,4,6,4,3,3,2,3,3,8,9,7,4,3,1,2,3,1,2,2,1,2,2,3,3,1,3,2,0,0,1,0,2,3,3,3,0,0,0,3,3,0,0,0,0,0,0,0,0,0,0,0,0,0,0,0,1,2,2,1,0,0,1,0,1,0,0,0,0,0,0,3,3,1,1,3,2,0,1,2,4,2,3,2,3,2,0,2,3,1,2,2,1,1,1,7,6,0,0,0,3,3,2,4,1,6,5,1,0,0,2,3,1,0,1,2,2,1,1,1,1,1,1,0,2,3,1,1,1,0,0,0,2,3,1,1,3,2,3,3,0,0,0,0,0,0,0,3,3,0,0,0,0,3,4,3,0,2,3,1,0,0,0,3,3,0,0,6,16,12,3,0,7,-1,-1,-1,-1,-1,-1,-1,-1,-1,-1,-1,-1,-1,-1,-1,-1,-1,-1,-1,-1,-1,-1
-1,-1,-1,-1,-1,-1,-1,-1,-1,-1,-1,-1,-1,-1,-1,-1,-1,-1,-1,-1,-1,-1,-1,-1,-1,-1,-1,-1,-1,-1,-1,-1,-1,-1,-1,-1,-1,-1,-1,-1,-1,-1,-1,-1,-1,-1,-1,-1,-1,-1,-1,-1,-1,-1,-1,-1,-1,-1,-1,-1,-1,-1,-1,-1,-1,-1,-1,-1,-1,5,21,14,4,6,7,8,5,1,1,2,2,2,2,3,1,2,2,5,6,2,2,2,3,1,0,4,6,4,3,4,5,7,7,5,6,8,8,8,5,6,3,8,7,1,1,1,1,6,7,5,4,2,5,3,5,2,5,1,1,2,5,1,0,0,1,3,2,1,3,1,4,2,3,2,2,2,2,2,4,4,3,3,3,4,6,5,3,4,4,3,5,6,6,2,5,4,3,2,2,0,0,0,0,2,3,1,1,0,3,3,1,1,3,2,0,2,3,1,1,0,1,0,0,0,0,0,0,0,0,1,0,1,0,0,2,4,5,2,3,2,3,4,6,4,2,5,3,3,2,3,5,3,4,8,7,2,2,1,2,2,1,2,3,1,1,1,1,0,1,0,1,2,3,1,1,3,2,2,3,4,8,7,7,5,6,2,3,7,9,10,7,6,2,3,4,3,1,2,2,2,4,3,2,1,2,5,2,1,1,2,2,3,3,3,1,1,1,3,2,0,0,0,0,0,0,0,0,0,0,0,0,0,0,1,2,2,1,0,0,1,1,4,1,0,0,0,1,1,1,3,2,0,0,2,3,1,1,3,2,2,3,5,2,1,0,1,4,2,2,1,1,0,0,6,7,1,0,0,3,3,2,4,5,4,2,0,0,0,1,3,2,0,0,1,1,1,1,1,1,2,2,1,2,3,1,1,1,0,0,0,1,3,2,0,3,3,3,3,0,0,0,1,1,1,1,3,2,0,0,0,0,3,4,3,1,2,3,1,0,1,1,3,2,0,1,5,5,2,3,3,8,11,-1,-1,-1,-1,-1,-1,-1,-1,-1,-1,-1,-1,-1,-1,-1,-1,-1,-1,-1,-1,-1
-1,-1,-1,-1,-1,-1,-1,-1,-1,-1,-1,-1,-1,-1,-1,-1,-1,-1,-1,-1,-1,-1,-1,-1,-1,-1,-1,-1,-1,-1,-1,-1,-1,-1,-1,-1,-1,-1,-1,-1,-1,-1,-1,-1,-1,-1,-1,-1,-1,-1,-1,-1,-1,-1,-1,-1,-1,-1,-1,-1,-1,-1,-1,-1,-1,-1,-1,-1,-1,3,7,17,7,7,8,5,4,1,2,2,2,1,1,1,0,1,1,1,1,3,2,1,3,2,0,5,3,1,3,8,9,7,7,7,6,5,7,7,5,7,7,5,6,3,5,5,3,3,2,5,2,4,5,6,2,5,2,1,2,5,4,2,0,0,2,3,1,0,2,3,2,4,5,2,0,2,3,2,4,5,2,2,3,4,6,4,4,4,4,3,2,4,6,5,2,3,2,0,2,0,0,0,0,1,1,3,2,0,3,3,1,3,2,1,0,2,3,1,1,2,1,0,0,0,0,0,0,0,0,1,2,2,1,1,2,6,6,6,2,5,7,7,6,5,1,6,7,1,2,5,5,5,5,3,3,3,3,3,1,1,0,3,3,0,0,0,1,1,2,1,2,2,2,1,1,3,2,1,2,6,5,7,7,7,6,3,3,6,5,6,6,4,3,4,6,4,3,1,1,5,7,5,1,1,2,5,2,3,2,0,1,3,3,3,2,1,3,2,1,0,0,0,0,0,0,1,1,1,1,1,1,1,1,2,2,1,0,0,0,1,4,4,1,1,1,1,2,2,1,1,1,0,0,1,1,1,1,1,1,1,2,5,2,1,1,1,2,2,2,1,1,0,0,5,4,2,1,1,2,5,1,2,1,2,1,0,0,0,0,3,3,0,0,0,0,0,0,0,0,1,3,2,1,1,1,3,2,0,0,0,1,3,2,0,3,3,3,3,0,0,0,2,3,1,1,1,1,0,0,0,1,3,2,1,1,1,1,1,0,2,3,1,1,0,1,6,2,4,7,18,18,22,-1,-1,-1,-1,-1,-1,-1,-1,-1,-1,-1,-1,-1,-1,-1,-1,-1,-1,-1,-1,-1
-1,-1,-1,-1,-1,-1,-1,-1,-1,-1,-1,-1,-1,-1,-1,-1,-1,-1,-1,-1,-1,-1,-1,-1,-1,-1,-1,-1,-1,-1,-1,-1,-1,-1,-1,-1,-1,-1,-1,-1,-1,-1,-1,-1,-1,-1,-1,-1,-1,-1,-1,-1,-1,-1,-1,-1,-1,-1,-1,-1,-1,-1,-1,-1,-1,-1,-1,-1,-1,-1,4,17,9,7,8,7,7,1,1,2,4,2,1,1,1,0,0,0,0,3,4,3,2,2,1,2,3,1,2,4,7,8,5,6,7,7,5,7,7,5,7,7,6,4,3,2,3,2,1,2,2,2,3,3,3,2,3,1,2,3,2,3,1,1,3,2,0,1,1,3,2,1,3,2,1,3,2,2,3,1,1,5,4,4,4,4,4,4,3,3,2,5,6,3,2,1,2,1,2,1,1,1,1,1,1,3,2,0,3,3,1,3,2,1,1,1,2,2,1,0,1,0,0,0,0,0,0,0,0,1,1,2,2,1,0,3,4,4,3,5,8,7,4,3,1,7,6,0,3,3,3,2,1,3,2,3,4,3,0,0,0,3,3,0,0,1,2,2,1,1,1,1,1,2,2,1,1,0,2,3,1,3,4,4,4,3,3,6,6,6,6,6,6,7,7,6,6,3,1,5,6,2,1,0,0,2,3,2,3,1,1,3,2,2,3,1,2,2,1,0,0,0,0,0,1,2,2,1,1,1,1,1,1,1,1,0,0,0,0,1,2,1,2,2,2,1,1,1,1,0,1,0,0,0,0,0,0,0,0,0,0,2,3,1,0,0,0,0,1,2,2,1,1,2,5,1,0,1,3,2,0,0,0,0,0,0,0,0,0,3,3,0,0,0,0,0,0,0,0,0,3,3,0,0,0,3,3,0,0,0,2,3,1,0,3,3,3,3,0,0,0,3,3,0,0,0,0,0,0,1,2,2,1,0,0,0,0,0,0,3,3,0,0,0,1,2,5,4,9,11,16,16,-1,-1,-1,-1,-1,-1,-1,-1,-1,-1,-1,-1,-1,-1,-1,-1,-1,-1,-1,-1,-1
-1,-1,-1,-1,-1,-1,-1,-1,-1,-1,-1,-1,-1,-1,-1,-1,-1,-1,-1,-1,-1,-1,-1,-1,-1,-1,-1,-1,-1,-1,-1,-1,-1,-1,-1,-1,-1,-1,-1,-1,-1,-1,-1,-1,-1,-1,-1,-1,-1,-1,-1,-1,-1,-1,-1,-1,-1,-1,-1,-1,-1,-1,-1,-1,-1,-1,-1,-1,-1,-1,-1,3,5,6,8,9,7,1,1,3,2,1,1,2,2,1,1,1,1,5,6,3,2,2,2,1,1,2,2,4,6,7,7,6,6,7,8,6,5,7,7,6,4,4,4,2,2,1,0,1,0,3,3,2,3,1,2,2,3,3,1,1,1,1,1,1,0,1,2,3,3,2,3,2,4,2,2,1,3,2,1,5,4,4,4,4,4,3,3,4,3,3,4,3,2,2,1,1,1,1,1,1,1,1,1,1,1,0,3,3,0,3,3,2,4,3,2,3,2,0,0,0,0,0,0,0,0,0,0,0,2,3,2,2,1,3,4,4,4,4,6,6,4,4,3,3,5,1,3,2,3,2,0,3,4,3,2,3,1,0,0,2,3,1,1,2,2,1,0,1,1,1,2,2,1,1,1,1,3,2,1,3,4,4,3,2,6,8,5,4,4,6,6,6,6,8,7,4,2,3,4,3,1,1,1,1,3,2,2,2,2,3,2,1,2,2,1,3,2,0,0,0,0,1,2,2,1,0,0,0,0,0,0,0,0,0,0,0,0,0,2,2,1,1,1,0,0,0,1,2,1,0,0,0,0,0,0,1,1,1,1,1,2,2,1,3,2,0,0,1,1,1,1,5,2,1,1,2,2,1,0,1,1,1,1,1,1,1,1,3,2,0,0,0,0,0,0,0,0,0,3,3,0,0,0,3,3,0,0,1,3,2,0,0,3,3,3,3,0,0,0,3,3,0,0,0,1,1,1,2,2,1,0,0,0,0,0,0,0,3,3,0,0,0,0,5,4,5,11,9,12,1,-1,-1,-1,-1,-1,-1,-1,-1,-1,-1,-1,-1,-1,-1,-1,-1,-1,-1,-1,-1,-1
-1,-1,-1,-1,-1,-1,-1,-1,-1,-1,-1,-1,-1,-1,-1,-1,-1,-1,-1,-1,-1,-1,-1,-1,-1,-1,-1,-1,-1,-1,-1,-1,-1,-1,-1,-1,-1,-1,-1,-1,-1,-1,-1,-1,-1,-1,-1,-1,-1,-1,-1,-1,-1,-1,-1,-1,-1,-1,-1,-1,-1,-1,-1,-1,-1,-1,-1,-1,-1,-1,-1,7,10,4,8,9,8,3,1,1,1,2,2,2,2,1,1,2,2,3,4,4,3,2,2,2,1,1,1,3,4,4,4,6,6,8,7,6,7,7,5,6,6,7,6,1,1,0,0,2,3,3,2,1,1,3,2,3,3,3,1,1,1,0,0,1,1,1,1,2,3,1,3,1,0,1,2,2,3,3,3,3,3,3,4,4,4,3,3,4,3,2,3,2,2,1,0,0,0,0,0,0,0,0,0,0,0,1,3,2,0,2,3,3,1,3,1,3,2,0,0,0,0,0,0,0,1,1,1,1,3,4,3,1,2,4,6,4,4,4,4,4,4,4,3,3,3,2,2,2,2,1,0,3,4,3,1,2,3,1,1,1,1,0,0,1,2,2,2,4,1,0,2,3,1,0,1,0,1,1,3,2,5,4,2,2,3,6,6,4,4,7,8,5,3,9,9,7,5,2,3,1,1,1,2,2,2,3,1,3,2,2,2,1,1,2,2,2,5,1,1,0,1,2,2,1,0,0,0,0,0,0,0,0,0,0,0,1,1,1,2,2,1,0,0,0,0,0,1,0,1,0,0,0,0,0,0,2,3,2,2,1,1,1,1,2,5,1,1,1,1,1,1,2,5,1,1,1,1,0,0,2,3,1,1,1,1,1,1,1,1,0,0,0,0,0,0,0,0,0,3,3,0,0,0,3,3,0,1,2,2,1,0,0,3,3,3,3,0,0,0,3,3,0,0,0,1,3,2,1,1,0,0,0,0,0,1,1,1,3,2,0,0,0,0,2,1,8,1,8,7,16,-1,-1,-1,-1,-1,-1,-1,-1,-1,-1,-1,-1,-1,-1,-1,-1,-1,-1,-1,-1,-1
-1,-1,-1,-1,-1,-1,-1,-1,-1,-1,-1,-1,-1,-1,-1,-1,-1,-1,-1,-1,-1,-1,-1,-1,-1,-1,-1,-1,-1,-1,-1,-1,-1,-1,-1,-1,-1,-1,-1,-1,-1,-1,-1,-1,-1,-1,-1,-1,-1,-1,-1,-1,-1,-1,-1,-1,-1,-1,-1,-1,-1,-1,-1,-1,-1,-1,-1,-1,-1,-1,-1,24,13,4,8,9,8,4,3,1,1,2,3,1,3,2,2,3,2,3,4,4,3,3,1,1,1,2,2,3,3,3,3,7,8,5,7,7,6,7,8,6,6,5,6,2,1,1,1,3,5,0,0,0,0,3,3,3,3,1,1,2,2,1,0,3,3,3,2,2,3,1,3,1,3,3,2,3,6,4,4,3,2,3,3,4,4,3,3,3,2,2,2,2,1,0,0,0,0,0,0,0,0,0,0,0,1,2,2,1,0,1,1,1,3,2,2,3,1,0,0,0,0,0,0,1,2,2,1,3,2,4,3,1,5,7,7,6,4,4,4,4,4,4,3,3,4,3,2,2,1,1,1,2,3,1,0,2,3,1,0,0,0,1,1,1,2,2,1,1,1,1,2,2,1,1,2,1,2,1,3,2,2,3,2,2,3,4,4,4,6,7,9,5,3,9,12,7,4,3,3,2,0,0,1,2,2,2,2,3,3,1,2,2,1,1,1,5,2,3,2,0,2,3,1,0,0,0,0,0,0,0,0,1,1,1,1,2,2,1,1,1,0,1,0,0,0,0,0,1,1,1,1,1,1,1,1,3,2,1,1,1,2,2,1,3,2,0,0,0,0,0,0,3,3,0,0,0,0,0,0,3,3,0,0,0,0,0,0,0,0,0,0,0,0,0,0,0,0,0,3,3,0,0,0,3,3,1,2,2,1,0,0,0,3,3,3,3,0,0,0,2,3,1,1,0,1,2,2,1,0,0,0,0,1,1,2,2,1,1,1,0,0,0,1,1,2,8,11,10,10,8,-1,-1,-1,-1,-1,-1,-1,-1,-1,-1,-1,-1,-1,-1,-1,-1,-1,-1,-1,-1,-1
-1,-1,-1,-1,-1,-1,-1,-1,-1,-1,-1,-1,-1,-1,-1,-1,-1,-1,-1,-1,-1,-1,-1,-1,-1,-1,-1,-1,-1,-1,-1,-1,-1,-1,-1,-1,-1,-1,-1,-1,-1,-1,-1,-1,-1,-1,-1,-1,-1,-1,-1,-1,-1,-1,-1,-1,-1,-1,-1,-1,-1,-1,-1,-1,-1,-1,-1,-1,-1,-1,-1,9,7,4,8,9,8,6,3,3,3,3,3,0,3,3,3,3,1,3,4,4,3,2,2,1,1,1,1,1,1,2,2,7,8,7,7,5,6,8,7,6,6,7,6,1,1,1,1,7,6,2,3,1,1,5,2,2,2,1,1,1,3,2,1,6,5,4,3,2,3,1,3,1,3,3,2,5,7,7,6,4,2,3,3,4,4,3,3,3,0,2,3,1,0,0,0,0,0,0,0,0,0,0,0,1,2,2,1,0,0,0,0,1,3,2,2,3,1,0,0,0,0,0,0,2,3,1,0,2,4,6,3,2,3,6,8,7,4,4,4,4,4,3,3,4,4,4,3,2,4,3,1,1,0,1,0,1,3,2,0,1,1,2,2,1,1,1,0,0,0,2,3,1,0,1,3,2,1,1,1,1,1,3,2,1,3,4,3,5,6,8,7,4,6,9,8,7,6,6,6,5,1,1,1,1,2,2,2,3,5,1,1,3,2,0,0,3,3,3,3,0,3,3,0,0,0,0,0,0,0,0,0,2,3,1,1,1,1,1,1,2,4,1,0,0,0,1,1,2,2,1,1,1,1,1,1,1,1,0,0,0,1,1,1,1,1,0,0,0,0,1,1,3,2,0,0,1,1,1,1,3,2,0,0,0,0,0,0,0,0,0,0,0,0,0,0,0,0,0,3,3,0,0,0,3,3,2,3,1,0,0,0,0,3,3,3,3,0,0,0,1,1,2,2,1,1,1,2,2,1,0,0,0,2,3,1,1,0,0,0,0,0,1,2,0,8,6,6,7,4,25,-1,-1,-1,-1,-1,-1,-1,-1,-1,-1,-1,-1,-1,-1,-1,-1,-1,-1,-1,-1,-1
-1,-1,-1,-1,-1,-1,-1,-1,-1,-1,-1,-1,-1,-1,-1,-1,-1,-1,-1,-1,-1,-1,-1,-1,-1,-1,-1,-1,-1,-1,-1,-1,-1,-1,-1,-1,-1,-1,-1,-1,-1,-1,-1,-1,-1,-1,-1,-1,-1,-1,-1,-1,-1,-1,-1,-1,-1,-1,-1,-1,-1,-1,-1,2,-1,-1,-1,-1,-1,-1,-1,-1,4,6,8,8,8,4,3,7,7,2,3,1,3,3,3,2,0,2,4,4,2,2,1,1,1,3,2,0,0,1,1,8,8,7,5,7,7,5,7,7,6,6,4,2,2,2,2,7,8,3,3,0,0,3,3,2,3,1,1,3,4,3,2,4,4,4,3,1,2,1,2,1,0,1,2,3,6,6,4,2,1,3,3,4,4,5,2,2,2,3,2,0,0,0,1,0,1,0,0,0,0,0,0,2,3,1,0,0,0,0,0,1,1,2,2,2,2,1,1,1,1,0,0,3,3,0,0,1,2,6,4,3,4,4,7,8,6,4,6,6,6,3,2,4,6,4,3,2,2,2,1,1,2,2,1,0,3,3,0,2,3,1,1,0,0,0,0,0,0,2,3,1,0,1,2,2,1,1,1,1,1,2,3,1,2,5,2,3,4,7,8,7,7,7,5,6,6,8,7,3,1,1,1,3,2,3,2,5,2,2,2,2,3,1,1,3,2,2,3,1,3,3,0,1,1,1,1,1,1,1,1,3,2,0,1,1,2,2,1,5,2,1,1,1,1,2,2,1,1,0,0,0,0,0,0,0,0,0,0,0,0,1,1,1,1,0,0,1,1,2,2,1,1,0,0,2,3,1,1,1,1,0,0,0,0,0,0,0,0,0,0,0,0,0,0,0,0,0,3,3,0,0,0,3,3,3,3,1,1,1,1,0,3,3,3,3,0,0,0,1,0,1,1,2,2,1,1,3,2,0,0,1,3,2,0,0,0,0,0,0,0,2,3,4,8,8,2,9,16,17,8,-1,-1,-1,-1,-1,-1,-1,-1,-1,-1,-1,-1,-1,-1,-1,-1,-1,-1,-1,-1
-1,-1,-1,-1,-1,-1,-1,-1,-1,-1,-1,-1,-1,-1,-1,-1,-1,-1,-1,-1,-1,-1,-1,-1,-1,-1,-1,-1,-1,-1,-1,-1,-1,-1,-1,-1,-1,-1,-1,-1,-1,-1,-1,-1,-1,-1,-1,-1,-1,-1,-1,-1,-1,-1,-1,-1,-1,-1,-1,-1,-1,-1,-1,2,10,-1,-1,-1,-1,-1,-1,-1,2,10,6,6,11,7,3,7,8,3,3,3,3,3,3,3,2,2,3,3,3,2,1,2,2,2,5,2,1,1,1,7,8,8,7,6,7,7,5,7,7,6,4,1,1,1,1,8,7,4,3,1,1,3,2,4,6,2,1,2,4,6,5,3,5,6,2,1,1,1,1,2,3,1,1,3,3,4,5,1,1,3,3,3,2,5,5,4,1,3,2,0,0,0,1,2,1,0,0,0,0,0,0,3,3,0,0,0,0,0,0,0,0,1,2,2,1,1,1,3,2,1,1,3,2,1,1,1,3,6,4,3,6,6,7,8,4,5,6,7,6,3,3,7,6,3,2,3,2,2,4,2,2,2,1,1,3,2,0,3,3,1,1,1,1,1,0,1,1,2,3,1,0,0,1,2,2,1,2,4,1,1,2,2,2,3,2,2,6,7,6,7,9,7,6,5,6,7,7,6,5,2,2,3,3,3,3,5,3,1,2,2,2,3,2,3,1,2,3,1,3,3,0,1,4,2,2,1,1,1,1,1,1,0,1,3,2,1,0,2,3,1,2,2,1,1,1,0,0,0,0,0,0,0,0,1,1,1,1,0,0,1,4,4,1,1,1,2,2,1,1,0,1,1,1,3,2,0,1,0,0,0,0,0,0,0,0,0,0,0,0,0,0,0,0,0,0,0,3,3,0,1,1,3,2,2,3,2,5,4,1,0,3,3,2,3,1,1,0,2,2,2,0,1,3,2,0,3,3,0,0,1,3,2,1,1,1,0,0,0,0,3,3,1,5,11,17,28,9,8,19,-1,-1,-1,-1,-1,-1,-1,-1,-1,-1,-1,-1,-1,-1,-1,-1,-1,-1,-1,-1
-1,-1,-1,-1,-1,-1,-1,-1,-1,-1,-1,-1,-1,-1,-1,-1,-1,-1,-1,-1,-1,-1,-1,-1,-1,-1,-1,-1,-1,-1,-1,-1,-1,-1,-1,-1,-1,-1,-1,-1,-1,-1,-1,-1,-1,-1,-1,-1,-1,-1,-1,-1,-1,-1,-1,-1,-1,-1,-1,-1,-1,-1,4,2,8,-1,-1,-1,-1,-1,-1,-1,-1,4,19,5,5,9,15,5,7,5,6,2,1,1,3,2,0,1,1,2,5,2,2,2,1,2,5,4,3,4,3,8,8,7,8,6,6,8,7,6,4,6,4,2,1,1,1,7,7,4,3,2,3,1,2,2,3,2,2,4,6,6,3,2,6,5,4,2,4,1,0,3,3,1,3,2,1,3,2,2,3,2,5,1,1,3,5,1,1,3,2,0,0,0,1,0,1,0,0,0,0,0,0,3,3,0,0,0,0,0,0,0,0,0,1,3,2,0,0,3,3,2,2,1,1,2,3,1,1,6,6,4,7,7,7,8,6,3,4,6,4,4,4,4,4,0,1,1,1,1,1,2,3,1,2,2,1,1,0,3,2,4,2,2,4,1,1,2,2,1,1,1,0,0,0,1,2,2,1,1,1,0,1,3,2,3,2,2,4,4,2,8,7,7,8,8,8,4,4,6,3,3,3,4,5,2,5,4,7,1,1,1,5,4,4,3,0,1,3,2,3,3,0,1,1,2,2,1,0,1,1,1,1,0,1,3,2,0,0,1,1,1,1,1,0,0,0,0,0,0,0,0,0,0,0,2,4,3,1,0,0,1,1,1,1,2,3,1,1,0,1,2,1,2,3,1,2,1,2,1,0,0,0,0,0,0,0,0,0,0,0,0,0,0,0,0,0,0,3,3,0,2,3,1,1,1,1,5,2,1,1,1,3,2,1,1,3,2,0,2,2,2,0,0,3,3,0,3,3,0,0,1,1,1,1,3,2,0,0,0,0,3,3,1,2,7,9,7,9,6,1,-1,-1,-1,-1,-1,-1,-1,-1,-1,-1,-1,-1,-1,-1,-1,-1,-1,-1,-1,-1
-1,-1,-1,-1,-1,-1,-1,-1,-1,-1,-1,-1,-1,-1,-1,-1,-1,-1,-1,-1,-1,-1,-1,-1,-1,-1,-1,-1,-1,-1,-1,-1,-1,-1,-1,-1,-1,-1,-1,-1,-1,-1,-1,-1,-1,-1,-1,-1,-1,-1,-1,-1,-1,-1,-1,-1,-1,-1,-1,-1,-1,-1,-1,2,12,-1,-1,-1,-1,-1,-1,-1,-1,20,15,9,2,25,10,6,11,4,6,5,1,0,2,3,1,0,0,0,2,3,1,2,2,1,3,3,4,4,2,6,8,5,8,7,4,7,8,6,4,6,7,6,3,1,1,3,4,4,3,2,3,2,3,1,3,3,3,3,2,3,2,4,2,1,1,1,1,1,0,3,3,1,2,2,1,1,1,3,2,3,3,0,0,2,3,1,0,3,3,0,0,0,0,0,0,0,0,0,0,0,0,3,3,0,0,0,0,0,0,0,0,0,0,3,3,0,0,3,2,3,1,0,1,3,2,0,2,4,6,4,5,7,7,7,6,3,4,4,4,4,4,4,3,2,2,1,0,1,1,3,2,1,2,2,1,1,1,3,2,1,1,1,1,1,2,2,1,0,0,0,0,1,1,1,2,2,1,0,0,0,0,3,3,2,3,2,3,2,2,3,6,5,8,8,8,6,3,3,4,3,3,4,3,3,3,8,6,1,0,1,3,4,4,3,0,1,3,2,3,3,0,1,0,1,2,2,1,2,2,3,2,0,0,3,3,0,0,0,0,0,0,0,0,0,0,0,0,0,0,0,0,0,0,2,2,2,1,0,0,0,0,0,0,3,3,0,0,0,1,0,1,3,3,2,3,1,2,2,1,0,0,0,0,0,0,0,0,0,0,0,0,0,0,0,0,0,3,3,0,3,3,0,0,0,0,3,3,0,0,2,3,1,0,0,3,3,0,1,0,1,0,1,3,2,0,3,3,0,0,0,0,0,0,3,3,0,0,0,0,3,3,0,0,0,0,0,0,0,3,-1,-1,-1,-1,-1,-1,-1,-1,-1,-1,-1,-1,-1,-1,-1,-1,-1,-1,-1,-1
-1,-1,-1,-1,-1,-1,-1,-1,-1,-1,-1,-1,-1,-1,-1,-1,-1,-1,-1,-1,-1,-1,-1,-1,-1,-1,-1,-1,-1,-1,-1,-1,-1,-1,-1,-1,-1,-1,-1,-1,-1,-1,-1,-1,-1,-1,-1,-1,-1,-1,-1,-1,-1,-1,-1,-1,-1,-1,-1,-1,-1,-1,-1,-1,2,15,-1,-1,-1,-1,-1,-1,-1,-1,17,13,15,7,9,13,8,4,4,4,3,1,1,2,2,1,0,0,1,2,2,1,3,4,3,1,3,2,1,3,6,8,9,8,6,6,6,4,4,4,7,8,6,5,3,4,2,4,3,1,3,2,3,0,3,3,3,3,1,2,2,2,3,1,1,1,1,1,0,2,3,1,1,2,2,1,1,1,1,3,2,0,1,3,2,0,0,3,3,0,0,0,0,0,0,0,0,0,0,0,0,3,3,0,0,0,0,0,0,0,0,0,0,2,3,1,0,2,2,2,0,0,2,3,1,0,3,6,6,6,7,7,7,7,6,3,6,6,4,4,4,3,1,1,3,2,1,2,2,1,1,0,1,1,1,1,1,1,0,0,0,0,0,2,3,1,0,0,0,0,1,2,2,1,1,1,0,0,0,0,0,3,3,1,3,2,2,2,1,5,4,6,8,7,7,7,5,2,3,3,4,4,3,3,4,7,8,2,1,2,3,4,4,3,0,0,3,3,2,3,1,1,2,1,2,2,2,2,2,3,3,0,0,3,3,0,0,0,0,0,0,0,0,0,0,0,0,0,0,0,0,0,0,1,0,1,0,0,0,0,0,0,0,3,3,0,0,0,0,0,1,3,2,3,2,0,1,3,2,0,0,0,0,0,0,0,0,0,0,0,0,0,0,0,0,1,3,2,1,3,2,0,0,0,0,3,3,0,0,3,3,0,0,1,3,2,0,0,0,0,0,2,3,1,0,3,3,0,0,0,0,0,0,3,3,0,0,0,0,3,3,0,0,0,0,0,0,0,3,9,-1,-1,-1,-1,-1,-1,-1,-1,-1,-1,-1,-1,-1,-1,-1,-1,-1,-1,-1
-1,-1,-1,-1,-1,-1,-1,-1,-1,-1,-1,-1,-1,-1,-1,-1,-1,-1,-1,-1,-1,-1,-1,-1,-1,-1,-1,-1,-1,-1,-1,-1,-1,-1,-1,-1,-1,-1,-1,-1,-1,-1,-1,-1,-1,-1,-1,-1,-1,-1,-1,-1,-1,-1,-1,-1,-1,-1,-1,-1,-1,-1,-1,-1,-1,-1,-1,-1,-1,-1,-1,-1,-1,-1,12,21,6,16,8,5,10,5,6,6,4,2,0,1,2,2,1,0,0,1,1,1,6,7,5,0,1,2,3,4,6,11,10,6,4,4,4,6,4,4,7,8,6,4,5,2,2,4,2,2,3,2,3,0,3,3,3,3,0,1,1,1,1,0,1,1,2,2,1,1,1,0,2,3,1,0,0,1,2,2,1,0,2,3,1,0,0,3,3,0,0,0,0,0,0,0,0,0,0,1,1,3,2,0,0,0,0,0,0,0,0,0,0,1,2,2,1,1,1,1,0,1,3,2,0,1,5,7,7,6,6,8,7,7,6,4,7,7,6,6,5,1,0,1,3,2,2,3,1,0,0,0,0,0,1,1,2,2,2,0,0,0,0,3,3,0,0,0,0,0,2,3,1,0,0,0,0,0,0,0,1,3,2,0,2,3,1,1,2,3,5,3,7,8,5,6,3,3,3,6,4,4,3,5,6,8,6,1,1,3,4,4,4,3,1,0,2,3,1,3,2,1,0,1,2,2,1,1,2,2,2,0,0,3,3,0,0,0,0,0,0,0,0,0,0,0,0,0,0,0,0,0,0,0,0,0,0,0,0,0,0,1,1,3,2,0,0,0,0,0,2,3,2,3,1,0,0,3,3,0,0,0,0,0,0,0,0,0,0,0,0,0,0,1,1,2,2,1,2,3,1,0,0,0,0,3,3,0,0,3,3,0,0,2,3,1,0,0,0,1,1,3,2,0,0,3,3,0,0,0,0,0,0,3,3,0,0,0,0,3,3,0,0,0,0,0,0,0,3,6,-1,-1,-1,-1,-1,-1,-1,-1,-1,-1,-1,-1,-1,-1,-1,-1,-1,-1,-1
-1,-1,-1,-1,-1,-1,-1,-1,-1,-1,-1,-1,-1,-1,-1,-1,-1,-1,-1,-1,-1,-1,-1,-1,-1,-1,-1,-1,-1,-1,-1,-1,-1,-1,-1,-1,-1,-1,-1,-1,-1,-1,-1,-1,-1,-1,-1,-1,-1,-1,-1,-1,-1,-1,-1,-1,-1,-1,-1,-1,-1,-1,-1,-1,-1,-1,-1,-1,-1,-1,-1,-1,-1,-1,6,20,20,13,23,11,6,3,4,4,4,3,0,0,1,2,2,1,0,0,0,0,5,7,6,1,1,1,5,2,3,9,8,4,4,4,4,7,7,3,6,7,6,4,2,5,4,4,3,1,1,2,3,1,3,2,2,3,1,1,0,0,0,0,1,3,2,1,0,0,0,0,2,3,1,0,0,2,3,1,0,1,3,2,0,0,0,3,3,0,0,0,0,0,0,0,0,0,1,2,2,1,1,0,0,0,0,0,0,0,0,0,0,0,1,1,1,3,2,0,0,2,3,1,0,2,4,5,8,7,4,8,8,6,4,3,5,5,6,4,2,0,1,2,2,1,3,3,0,0,0,0,0,0,1,4,2,4,2,0,0,0,0,3,3,0,0,0,0,0,2,3,1,0,0,0,0,0,1,1,2,2,1,1,2,3,1,0,1,5,2,5,6,6,7,6,3,4,4,7,7,3,3,4,6,6,3,1,3,4,4,4,3,3,2,0,1,3,2,2,3,1,1,2,2,1,0,1,1,0,1,0,0,3,3,0,0,0,0,0,0,0,0,0,0,0,0,0,0,0,0,0,0,0,0,0,0,0,0,0,0,2,3,1,1,0,0,0,1,1,3,2,3,3,0,0,0,3,3,0,0,0,0,0,0,0,0,0,0,0,0,0,0,2,3,1,1,0,3,3,0,0,0,0,0,3,3,0,0,3,3,0,1,3,2,0,0,1,1,2,2,1,1,0,0,3,3,0,0,0,0,0,0,3,3,0,0,0,0,3,3,0,0,0,0,0,0,0,3,6,-1,-1,-1,-1,-1,-1,-1,-1,-1,-1,-1,-1,-1,-1,-1,-1,-1,-1,-1
-1,-1,-1,-1,-1,-1,-1,-1,-1,-1,-1,-1,-1,-1,-1,-1,-1,-1,-1,-1,-1,-1,-1,-1,-1,-1,-1,-1,-1,-1,-1,-1,-1,-1,-1,-1,-1,-1,-1,-1,-1,-1,-1,-1,-1,-1,-1,-1,-1,-1,-1,-1,-1,-1,-1,-1,-1,-1,-1,-1,-1,-1,-1,-1,-1,-1,-1,-1,-1,-1,-1,-1,-1,-1,13,21,3,21,12,18,6,3,4,4,4,3,0,1,1,1,3,2,0,0,0,1,3,4,3,3,2,0,2,3,5,7,6,3,4,6,6,8,6,3,4,7,6,4,2,6,6,6,6,1,1,1,3,3,3,1,1,1,2,2,1,1,1,1,1,2,2,1,0,0,0,0,2,3,1,0,0,3,3,0,0,2,3,1,0,0,0,3,3,0,0,0,0,0,0,0,0,1,2,2,1,0,0,0,0,0,0,0,0,0,0,0,0,0,0,0,0,3,3,0,1,3,2,0,0,3,6,8,8,8,6,7,8,6,4,4,8,7,4,5,1,1,2,2,1,1,3,2,0,0,0,0,0,0,1,1,1,1,1,0,0,0,1,3,2,0,0,0,0,0,1,2,2,1,1,0,0,0,2,3,1,2,3,1,1,1,1,0,0,3,3,2,3,3,6,4,2,6,7,8,8,3,3,6,7,6,1,2,4,6,4,4,3,2,3,1,0,3,3,1,3,2,2,3,1,1,2,1,0,0,0,0,0,3,3,0,0,0,0,0,0,0,0,0,0,1,1,1,1,1,1,1,1,1,1,0,0,0,0,0,1,3,2,0,0,0,0,1,2,2,1,1,3,3,0,0,0,3,3,0,0,0,0,0,0,1,1,1,1,1,1,1,1,3,2,0,0,0,3,3,0,0,0,0,0,3,3,0,0,3,3,0,2,3,1,0,0,2,3,1,1,0,0,0,0,3,3,0,0,0,0,0,0,3,3,0,0,0,0,3,3,0,0,0,0,0,0,0,3,1,-1,-1,-1,-1,-1,-1,-1,-1,-1,-1,-1,-1,-1,-1,-1,-1,-1,-1,-1
