-1,-1,-1,-1,-1,-1,-1,-1,-1,-1,-1,-1,-1,-1,-1,-1,-1,-1,-1,-1,-1,-1,-1,-1,-1,-1,-1,-1,-1,-1,-1,-1,-1,-1,-1,-1,-1,12,11,7,4,0,0,0,4,8,12,7,12,8,12,16,7,7,12,12,12,12,8,4,0,4,3,4,0,0,0,0,0,0,4,9,4,8,4,24,58,40,23,24,24,19,23,27,40,40,36,27,36,39,40,20,16,20,23,23,23,28,28,23,27,31,35,47,59,87,65,43,31,29,13,0,0,0,4,8,16,16,16,12,0,12,7,12,15,28,28,28,27,41,49,54,40,36,45,49,44,35,39,43,35,32,23,27,36,43,52,49,32,23,23,20,15,20,29,24,32,23,16,4,9,18,8,9,16,19,20,20,24,20,16,7,16,20,32,23,12,9,4,0,4,4,3,0,8,12,12,12,8,4,0,0,0,0,0,4,4,9,0,0,0,0,0,0,0,0,0,0,0,4,12,12,12,9,4,0,0,0,0,0,0,0,4,3,4,0,0,4,8,3,8,8,9,4,4,12,12,7,17,8,4,9,9,12,8,8,12,16,20,16,16,8,4,0,4,4,12,20,24,20,20,15,15,15,15,20,20,24,24,15,16,12,7,12,11,12,8,4,0,0,0,0,4,8,7,7,12,16,11,16,20,23,23,20,15,20,23,23,20,15,20,15,20,15,25,15,20,16,16,8,12,11,16,16,11,16,16,16,12,4,4,8,4,0,4,8,4,4,12,12,16,15,24,20,16,12,12,7,12,16,20,16,12,4,0,0,4,0,0,0,4,12,12,8,4,0,4,17,11,11,16,15,20,16,21,17,12,7,17,12,12,16,11,12,12,12,12,16,16,12,12,8,3,8,3,8,9,4,7,20,24,20,16,8,8,8,8,4,4,8,4,0,4,4,13,4,4,4,8,12,12,16,16,24,28,23,15,16,12,16,15,16,16,8,4,4,16,23,32,28,16,3,4,12,16,11,3,0,0,0,4,8,7,12,12,11,7,4,8,4,4,8,4,4,8,4,11,20,23,31,36,35,40,31,28,17,3,8,4,11,20,16,12,7,8,8,16,37,44,47,47,44,37,15,11,16,29,28,27,27,32,32,28,20,24,24,20,16,16,17,12,12,7,-1,-1,-1,-1,-1,-1,-1,-1,-1,-1,-1,-1,-1,-1,-1,-1,-1,-1,-1,-1,-1,-1,-1,-1,-1,-1,-1,-1,-1,-1,-1,-1,-1,-1,-1,-1,-1,-1,-1,-1,-1,-1,-1,-1,-1,-1,-1,-1,-1,-1,-1
-1,-1,-1,-1,-1,-1,-1,-1,-1,-1,-1,-1,-1,-1,-1,-1,-1,-1,-1,-1,-1,-1,-1,-1,-1,-1,-1,-1,-1,-1,-1,-1,-1,-1,-1,-1,-1,12,12,8,4,0,0,4,8,3,8,17,8,4,4,4,4,12,12,12,12,8,4,4,8,12,12,8,4,0,0,0,0,4,8,3,4,0,16,32,39,40,19,24,23,28,28,36,35,36,27,32,36,32,34,16,16,20,23,27,27,27,27,27,32,31,48,55,56,37,25,20,17,17,11,12,12,12,12,8,8,8,12,8,0,8,17,12,16,20,19,31,39,47,55,55,51,51,64,60,51,43,43,43,39,40,45,45,39,47,52,43,39,31,23,20,20,28,27,27,23,25,8,8,16,16,8,12,12,25,20,28,23,25,12,4,3,4,26,12,3,13,8,8,8,4,4,0,0,0,4,8,12,12,12,12,12,8,4,4,12,8,4,0,0,0,0,4,8,8,4,0,0,4,8,12,8,9,4,0,0,0,0,0,0,0,0,0,0,0,0,0,4,4,4,8,12,8,0,8,12,17,7,12,4,8,12,12,12,12,4,0,4,8,8,9,8,12,12,20,20,16,16,16,20,15,15,20,23,28,19,29,20,11,8,8,16,16,16,16,11,16,8,4,0,0,0,4,8,12,12,7,7,12,15,23,23,20,15,15,15,15,20,20,24,20,20,19,24,15,20,15,20,7,3,12,11,12,7,7,7,12,3,8,3,8,4,0,0,4,12,8,3,8,12,11,16,16,16,7,7,16,16,20,24,15,12,12,4,4,12,12,8,4,3,11,16,12,3,8,12,16,12,12,12,8,4,7,16,12,4,4,4,4,7,16,12,12,12,12,11,12,12,7,7,12,8,3,12,16,29,20,20,23,28,28,20,16,25,20,15,20,20,16,16,8,9,0,9,8,7,8,8,7,16,16,20,24,28,25,12,3,12,16,16,12,7,8,4,8,11,24,38,20,12,4,4,4,12,12,8,4,0,4,8,7,7,7,12,17,12,12,12,4,0,4,4,4,8,8,12,20,23,23,32,27,32,27,20,12,8,8,12,12,8,9,4,9,17,15,32,49,47,47,39,32,21,12,12,16,29,23,32,28,23,23,23,23,20,20,20,15,20,12,12,7,8,8,-1,-1,-1,-1,-1,-1,-1,-1,-1,-1,-1,-1,-1,-1,-1,-1,-1,-1,-1,-1,-1,-1,-1,-1,-1,-1,-1,-1,-1,-1,-1,-1,-1,-1,-1,-1,-1,-1,-1,-1,-1,-1,-1,-1,-1,-1,-1,-1,-1,-1
-1,-1,-1,-1,-1,-1,-1,-1,-1,-1,-1,-1,-1,-1,-1,-1,-1,-1,-1,-1,-1,-1,-1,-1,-1,-1,-1,-1,-1,-1,-1,-1,-1,-1,-1,-1,-1,3,4,8,4,0,0,0,4,0,0,4,0,4,8,4,4,8,4,0,0,4,8,12,12,8,8,8,8,4,0,0,0,0,4,4,13,4,16,19,24,20,20,20,23,23,27,36,36,32,27,31,31,28,16,16,20,24,23,27,36,31,31,40,44,39,47,56,50,17,8,12,16,16,17,9,9,9,8,4,8,12,8,4,4,8,12,0,12,16,15,28,41,40,44,43,43,57,51,55,47,39,36,41,40,39,43,39,45,40,35,44,39,35,31,36,28,19,24,15,7,8,8,13,12,11,12,8,4,8,20,23,29,20,16,17,18,13,13,4,4,4,4,9,9,8,4,0,0,0,0,0,4,8,12,12,12,12,4,4,4,0,0,0,0,0,0,0,9,9,0,0,0,0,0,0,0,4,4,4,8,8,4,0,0,0,0,0,0,0,0,4,8,4,0,9,8,3,3,4,0,4,4,4,4,0,4,8,12,12,8,3,4,0,4,8,17,12,20,24,20,16,12,12,16,16,15,20,28,27,32,27,19,15,25,15,20,16,16,11,16,11,12,8,4,0,0,0,3,11,16,12,12,16,20,25,25,15,15,20,23,28,32,28,23,28,23,28,24,23,32,23,20,12,8,3,12,8,3,8,4,4,8,7,7,8,4,0,0,4,8,12,3,12,12,12,7,12,7,12,12,16,15,20,24,20,11,11,16,12,7,12,12,0,8,12,12,7,12,12,12,11,16,12,3,0,4,12,12,7,8,3,8,0,12,11,16,16,15,16,12,8,3,8,8,3,8,12,16,20,19,24,20,20,16,16,11,16,29,23,27,31,31,27,28,15,17,4,9,4,4,4,4,4,12,11,12,12,12,4,0,4,8,17,12,12,12,12,12,12,4,12,27,4,0,4,4,4,12,12,9,0,0,4,8,7,7,12,8,3,8,7,7,12,12,7,12,3,8,21,20,28,23,23,19,24,19,29,20,17,8,12,8,4,4,8,12,20,32,31,40,39,43,44,31,20,12,12,12,16,24,23,20,11,16,20,28,29,16,16,16,20,24,20,16,12,7,-1,-1,-1,-1,-1,-1,-1,-1,-1,-1,-1,-1,-1,-1,-1,-1,-1,-1,-1,-1,-1,-1,-1,-1,-1,-1,-1,-1,-1,-1,-1,-1,-1,-1,-1,-1,-1,-1,-1,-1,-1,-1,-1,-1,-1,-1,-1,-1,-1,-1,-1
-1,-1,-1,-1,-1,-1,-1,-1,-1,-1,-1,-1,-1,-1,-1,-1,-1,-1,-1,-1,-1,-1,-1,-1,-1,-1,-1,-1,-1,-1,-1,-1,-1,-1,-1,-1,-1,12,12,12,4,0,0,4,8,4,0,4,0,0,4,4,4,8,4,0,0,4,12,8,4,0,0,4,8,8,8,12,12,12,9,0,9,0,3,12,12,12,16,20,25,15,24,27,32,19,23,27,27,24,20,24,23,23,28,27,36,31,32,36,39,48,43,42,17,4,12,12,12,11,8,13,12,12,12,12,12,16,12,4,0,9,13,16,12,12,16,15,20,15,24,28,27,27,31,40,36,31,28,23,32,31,36,31,23,19,28,32,32,28,32,36,27,27,19,20,25,24,23,29,16,16,16,16,17,12,25,12,7,16,15,24,25,8,21,16,17,4,9,8,8,8,8,4,0,0,0,0,0,0,0,0,0,4,4,4,4,0,0,4,8,8,4,4,8,8,4,0,0,0,0,0,0,4,8,4,9,13,4,0,0,0,0,0,0,0,4,8,8,4,4,9,8,12,12,4,0,4,8,3,8,4,0,9,9,9,0,9,0,0,0,0,4,4,12,16,16,15,16,12,7,12,15,24,19,28,31,31,28,19,19,20,20,16,16,11,16,11,12,7,8,4,4,8,12,12,12,12,11,12,12,7,12,16,20,23,28,27,27,23,19,24,25,21,20,28,27,28,16,8,8,4,4,0,4,4,4,4,8,3,8,3,8,4,0,4,8,12,3,8,4,4,8,8,12,7,12,16,15,16,16,12,12,12,16,11,4,8,17,7,7,7,7,12,7,7,12,12,11,12,12,12,12,21,12,4,4,4,8,4,4,12,11,12,12,12,3,8,8,3,8,12,12,16,15,15,11,3,4,4,0,4,8,16,24,27,31,36,36,31,23,20,16,4,12,7,7,8,9,12,7,12,12,4,12,8,4,4,0,4,8,8,3,7,11,8,8,20,29,16,4,8,3,8,7,12,8,4,4,8,3,8,12,11,12,12,16,16,16,20,23,23,28,25,20,29,28,23,19,24,20,20,16,21,13,9,8,8,4,0,0,4,7,20,31,44,48,48,39,36,24,16,12,12,16,20,20,24,16,12,12,16,20,16,8,8,11,20,24,20,16,12,12,12,-1,-1,-1,-1,-1,-1,-1,-1,-1,-1,-1,-1,-1,-1,-1,-1,-1,-1,-1,-1,-1,-1,-1,-1,-1,-1,-1,-1,-1,-1,-1,-1,-1,-1,-1,-1,-1,-1,-1,-1,-1,-1,-1,-1,-1,-1,-1,-1,-1,-1
-1,-1,-1,-1,-1,-1,-1,-1,-1,-1,-1,-1,-1,-1,-1,-1,-1,-1,-1,-1,-1,-1,-1,-1,-1,-1,-1,-1,-1,-1,-1,-1,-1,-1,-1,-1,-1,11,11,7,4,0,0,4,8,4,0,4,8,12,12,4,4,8,4,0,0,4,8,4,4,8,8,8,8,4,12,12,12,12,8,4,9,8,13,13,7,7,7,12,12,12,20,24,24,20,23,28,28,20,20,24,24,19,23,27,36,27,28,32,31,35,38,18,12,12,3,8,16,16,17,4,8,12,20,24,20,12,3,12,12,16,15,25,20,15,15,15,20,20,20,20,28,27,27,27,32,32,23,19,32,27,32,31,31,32,23,15,12,12,12,17,11,34,19,28,36,39,39,44,40,27,32,36,37,20,12,12,15,24,19,23,29,12,13,8,13,4,4,0,0,4,8,4,0,0,0,0,0,0,0,0,0,4,12,12,4,0,0,4,12,12,4,0,0,0,0,0,0,0,0,0,0,4,8,3,8,12,4,8,8,4,4,8,12,12,12,8,3,8,12,7,17,8,8,8,4,4,8,7,7,8,3,8,12,8,8,3,4,0,4,8,12,3,8,4,8,12,12,12,12,20,23,23,23,23,27,32,27,28,20,15,16,16,16,20,16,16,8,3,8,4,4,12,7,7,12,11,12,4,4,12,16,15,20,23,23,28,23,20,11,9,12,12,9,20,24,16,8,4,8,4,4,0,4,4,4,0,4,8,3,8,7,12,12,12,12,8,3,8,4,0,4,3,3,12,16,15,16,7,4,3,12,16,11,12,4,12,11,12,7,12,12,7,16,16,16,12,7,12,20,23,27,27,28,24,11,8,12,12,8,3,8,4,0,4,8,3,8,8,3,8,12,12,12,12,12,4,8,4,0,4,7,20,20,23,32,32,32,28,20,15,11,9,8,7,8,4,12,7,12,8,9,4,8,12,0,17,20,20,16,16,12,12,12,12,12,9,8,17,0,8,7,7,12,8,4,4,8,7,8,3,8,9,4,8,18,7,24,32,31,32,24,20,24,27,27,28,32,23,32,23,16,9,12,8,8,8,4,0,0,4,16,28,31,40,39,39,41,29,7,4,4,12,15,28,28,20,16,20,29,24,20,12,7,16,15,24,20,16,16,7,8,3,-1,-1,-1,-1,-1,-1,-1,-1,-1,-1,-1,-1,-1,-1,-1,-1,-1,-1,-1,-1,-1,-1,-1,-1,-1,-1,-1,-1,-1,-1,-1,-1,-1,-1,-1,-1,-1,-1,-1,-1,-1,-1,-1,-1,-1,-1,-1,-1,-1,-1
-1,-1,-1,-1,-1,-1,-1,-1,-1,-1,-1,-1,-1,-1,-1,-1,-1,-1,-1,-1,-1,-1,-1,-1,-1,-1,-1,-1,-1,-1,-1,-1,-1,-1,-1,-1,-1,9,9,0,0,0,0,4,8,12,8,3,12,12,8,3,8,8,4,0,0,4,8,8,8,12,12,12,8,8,8,4,0,0,4,3,9,13,13,9,8,7,12,7,12,16,20,20,16,7,16,16,25,16,16,16,16,16,15,20,34,20,20,20,28,28,12,12,7,7,12,16,16,16,12,9,16,15,15,24,24,20,29,28,28,23,20,11,15,23,28,23,19,23,23,23,19,28,31,31,31,32,23,24,24,32,36,31,36,31,27,19,21,12,12,12,25,16,28,31,35,44,48,47,43,35,35,40,36,28,24,28,23,23,28,27,32,27,28,29,24,16,12,4,0,0,4,4,4,8,8,4,0,0,0,0,0,4,8,8,4,4,8,12,4,4,4,0,0,0,0,0,0,0,0,0,0,0,4,4,4,4,4,9,9,0,4,12,12,12,7,7,16,16,16,12,4,0,4,8,4,0,4,8,7,7,12,12,12,12,12,8,4,0,0,9,8,3,8,4,0,4,8,12,16,24,28,23,23,20,25,20,28,23,20,15,16,12,7,16,11,12,8,9,4,4,4,4,8,12,12,9,4,8,4,4,12,16,20,20,28,24,16,11,7,4,12,16,7,13,14,0,4,13,9,4,4,4,8,4,4,0,4,8,3,8,7,7,12,8,3,8,12,3,8,4,4,12,7,7,12,12,12,12,12,16,16,16,12,4,3,7,11,12,7,8,3,12,11,16,16,20,20,24,28,31,39,39,31,23,16,12,7,12,12,8,3,12,12,7,7,12,7,8,4,0,0,0,4,3,3,12,12,3,8,16,16,20,16,12,13,14,14,13,8,12,12,9,4,8,4,12,16,12,4,9,8,12,8,4,3,20,32,31,27,24,16,7,12,16,15,11,7,12,12,12,11,16,11,12,12,12,7,7,8,4,4,8,4,4,3,9,16,33,30,13,4,16,33,31,31,31,36,35,35,32,16,4,3,4,4,8,4,0,0,8,20,27,31,35,40,31,20,8,8,12,16,16,20,23,23,24,28,36,40,31,28,15,16,20,20,24,20,12,7,12,12,3,-1,-1,-1,-1,-1,-1,-1,-1,-1,-1,-1,-1,-1,-1,-1,-1,-1,-1,-1,-1,-1,-1,-1,-1,-1,-1,-1,-1,-1,-1,-1,-1,-1,-1,-1,-1,-1,-1,-1,-1,-1,-1,-1,-1,-1,-1,-1,-1,-1,-1
-1,-1,-1,-1,-1,-1,-1,-1,-1,-1,-1,-1,-1,-1,-1,-1,-1,-1,-1,-1,-1,-1,-1,-1,-1,-1,-1,-1,-1,-1,-1,-1,-1,-1,-1,-1,-1,12,8,4,0,0,0,4,4,8,12,4,4,0,0,4,8,4,0,4,8,12,12,4,4,9,4,4,4,4,8,8,8,3,0,12,12,13,9,9,8,3,8,12,8,16,16,16,7,12,8,8,17,12,7,12,7,7,7,8,13,8,8,12,12,27,9,12,16,12,7,17,8,9,14,4,17,16,16,16,20,32,36,31,31,31,40,36,32,31,31,28,20,20,20,23,27,31,36,31,23,20,24,28,20,29,27,31,36,27,23,24,16,11,15,23,32,28,20,24,23,32,36,40,41,27,27,32,32,31,35,35,31,32,31,31,31,31,27,23,28,20,16,16,8,4,4,12,12,12,12,4,0,0,0,0,0,0,0,4,3,4,9,8,4,4,4,0,0,0,0,0,0,0,0,0,0,0,4,4,4,8,8,9,4,4,4,4,0,4,8,12,11,16,12,12,3,0,0,4,4,0,0,4,8,12,11,12,12,12,12,12,8,8,12,11,16,7,17,8,8,8,12,12,16,20,20,23,23,33,24,24,20,15,20,15,15,20,20,16,16,16,12,12,3,8,3,8,9,4,4,8,0,8,12,12,7,12,11,12,17,12,12,8,3,8,0,13,3,8,3,8,16,11,7,4,4,4,8,7,12,4,0,4,8,3,8,8,8,8,12,12,7,7,7,12,8,9,8,12,12,12,7,7,12,16,20,8,8,12,3,12,16,11,12,12,8,3,8,7,12,15,23,32,31,35,44,49,28,11,12,16,16,12,7,7,12,16,15,16,16,11,12,7,17,12,12,12,12,12,12,16,16,16,15,24,20,16,7,0,7,16,20,16,12,12,12,9,4,12,16,11,12,8,0,3,3,8,9,12,16,33,44,39,36,23,21,12,16,16,12,12,12,12,16,12,16,11,12,12,16,16,16,12,8,8,3,8,4,9,8,7,16,34,33,16,4,16,23,32,28,27,31,35,40,27,23,20,16,12,12,8,4,3,8,21,32,35,35,36,36,28,16,4,4,7,16,15,15,15,20,27,40,48,39,36,32,23,32,28,20,20,16,16,16,11,8,4,-1,-1,-1,-1,-1,-1,-1,-1,-1,-1,-1,-1,-1,-1,-1,-1,-1,-1,-1,-1,-1,-1,-1,-1,-1,-1,-1,-1,-1,-1,-1,-1,-1,-1,-1,-1,-1,-1,-1,-1,-1,-1,-1,-1,-1,-1,-1,-1,-1,-1
-1,-1,-1,-1,-1,-1,-1,-1,-1,-1,-1,-1,-1,-1,-1,-1,-1,-1,-1,-1,-1,-1,-1,-1,-1,-1,-1,-1,-1,-1,-1,-1,-1,-1,-1,-1,-1,12,8,4,0,0,4,8,4,0,4,8,3,8,8,9,4,4,8,12,12,8,8,8,8,8,8,3,4,0,4,8,8,9,4,9,3,21,17,4,4,8,4,4,12,16,16,12,9,4,4,8,9,4,8,12,7,12,16,12,8,4,12,12,3,9,4,9,8,8,0,12,16,20,25,12,12,15,23,28,23,36,40,35,31,35,39,44,27,29,25,20,20,20,16,16,20,29,29,21,12,12,16,20,12,8,20,28,36,32,24,16,16,21,15,28,27,32,41,33,24,20,25,20,20,32,31,40,44,43,44,35,36,36,31,31,31,31,32,28,20,20,15,16,12,4,3,11,16,7,4,4,0,0,0,0,0,0,0,4,13,4,8,4,0,4,4,4,3,4,0,0,0,0,0,0,0,0,4,4,0,9,13,9,9,0,4,8,4,4,8,3,8,3,8,12,12,16,16,12,12,0,8,12,7,7,12,12,12,12,8,4,9,12,16,20,20,20,20,20,21,11,12,12,7,16,16,20,28,23,28,28,23,28,28,20,20,23,23,23,20,12,12,16,12,7,7,12,7,12,12,4,0,4,7,16,12,7,7,8,4,4,3,4,4,8,4,9,12,12,4,12,16,16,16,12,4,4,4,12,8,4,0,4,8,4,4,8,12,12,11,12,12,7,7,7,12,4,8,7,12,12,16,16,12,8,14,8,8,13,7,12,4,12,8,8,8,8,3,8,12,16,20,15,25,24,33,34,12,16,16,15,20,15,15,20,20,15,15,20,20,15,20,20,28,23,20,20,24,24,28,23,24,24,19,24,20,7,4,4,12,20,24,15,12,12,8,13,12,16,20,16,12,4,0,0,4,8,12,16,16,24,60,46,29,16,12,3,12,12,4,3,12,12,12,8,3,8,12,16,15,15,16,16,12,7,7,8,0,12,12,21,25,23,29,13,17,20,24,20,20,23,27,32,37,28,33,24,15,15,16,12,3,13,21,29,27,46,27,29,16,12,3,12,12,16,16,16,12,12,15,28,40,35,32,28,27,31,31,27,23,20,20,16,16,12,4,4,-1,-1,-1,-1,-1,-1,-1,-1,-1,-1,-1,-1,-1,-1,-1,-1,-1,-1,-1,-1,-1,-1,-1,-1,-1,-1,-1,-1,-1,-1,-1,-1,-1,-1,-1,-1,-1,-1,-1,-1,-1,-1,-1,-1,-1,-1,-1,-1,-1,-1
-1,-1,-1,-1,-1,-1,-1,-1,-1,-1,-1,-1,-1,-1,-1,-1,-1,-1,-1,-1,-1,-1,-1,-1,-1,-1,-1,-1,-1,-1,-1,-1,-1,-1,-1,-1,-1,11,12,4,0,0,4,8,4,0,4,8,4,9,9,4,4,0,9,9,12,12,8,4,4,3,8,8,8,4,0,4,4,3,0,9,8,25,16,3,4,8,12,12,16,16,12,9,8,12,9,4,4,4,7,16,16,16,16,16,8,3,8,16,16,12,8,8,4,0,3,11,20,24,20,12,17,16,25,24,20,34,33,28,28,27,35,36,20,3,3,16,23,23,20,25,20,12,4,8,0,12,16,15,20,17,4,9,30,20,24,28,23,29,16,16,16,34,28,36,36,23,16,16,19,32,35,40,40,36,36,31,36,36,31,31,27,32,31,27,19,20,16,7,4,4,0,9,9,9,4,8,0,8,8,0,3,4,4,8,9,9,8,4,0,4,12,12,12,8,4,0,0,0,0,0,0,0,4,4,4,8,12,12,8,4,4,4,0,4,4,4,4,4,8,8,7,16,25,16,8,0,12,12,12,8,3,8,12,12,16,12,21,12,16,16,11,16,11,20,24,20,16,7,4,4,12,12,16,16,15,20,28,27,27,28,24,24,19,24,16,7,7,12,11,12,8,3,8,7,8,4,0,0,4,13,3,8,3,8,3,8,12,12,12,9,0,9,8,8,3,12,16,20,16,8,4,4,0,4,4,12,12,8,3,8,4,4,8,12,16,15,16,16,11,12,4,9,12,12,12,12,16,11,7,4,12,12,12,16,20,12,12,12,4,4,7,11,16,12,11,12,12,12,4,0,18,18,4,16,15,20,24,20,20,23,28,23,20,20,24,19,23,27,27,27,28,32,31,31,27,28,20,20,16,16,12,4,4,4,7,16,21,8,4,8,16,16,16,11,11,16,7,8,4,0,4,8,12,12,4,16,69,64,42,20,8,4,8,9,4,4,12,8,8,8,4,4,8,12,12,12,8,9,0,4,8,4,7,12,4,12,12,8,17,16,20,20,24,19,23,23,28,29,21,12,13,4,8,12,16,16,17,9,20,23,28,29,20,16,4,4,4,7,16,16,12,12,8,8,8,12,16,20,15,20,28,32,27,36,27,23,20,16,7,4,0,4,-1,-1,-1,-1,-1,-1,-1,-1,-1,-1,-1,-1,-1,-1,-1,-1,-1,-1,-1,-1,-1,-1,-1,-1,-1,-1,-1,-1,-1,-1,-1,-1,-1,-1,-1,-1,-1,-1,-1,-1,-1,-1,-1,-1,-1,-1,-1,-1,-1,-1
-1,-1,-1,-1,-1,-1,-1,-1,-1,-1,-1,-1,-1,-1,-1,-1,-1,-1,-1,-1,-1,-1,-1,-1,-1,-1,-1,-1,-1,-1,-1,-1,-1,-1,-1,-1,-1,12,3,8,4,0,4,4,12,8,4,4,4,8,8,9,4,4,8,12,8,8,8,4,0,4,3,8,8,12,12,12,8,4,4,17,16,20,7,4,0,4,8,12,12,12,0,3,4,9,8,4,4,12,16,15,16,11,11,12,12,12,16,20,25,17,4,12,8,4,4,12,11,16,12,4,8,0,8,12,16,12,12,11,11,15,38,33,28,33,29,19,27,36,40,40,35,36,32,42,33,29,20,25,20,12,8,9,12,9,17,20,25,20,12,7,8,9,9,16,29,33,20,20,23,23,28,28,28,28,27,31,36,36,31,31,32,27,27,27,28,28,15,12,4,4,8,9,9,4,4,8,4,9,9,4,13,4,0,9,9,8,8,4,0,4,8,8,8,8,4,0,0,0,0,0,0,4,8,4,0,0,0,0,0,0,4,8,4,4,4,4,4,4,8,4,4,8,9,8,12,8,4,0,4,8,12,12,12,12,16,15,29,15,16,12,11,16,11,16,20,20,16,12,9,0,4,8,12,16,15,15,20,20,28,23,28,19,20,16,12,11,16,16,16,16,12,12,7,12,12,8,4,0,4,13,4,4,8,3,8,12,12,12,12,7,7,17,12,12,16,16,15,20,16,12,13,4,0,4,8,7,12,12,7,7,8,4,4,8,17,12,12,7,17,8,3,8,9,11,16,7,8,8,8,0,9,12,16,15,20,16,7,8,4,4,12,16,16,15,16,12,3,3,0,12,29,20,4,7,16,20,23,23,20,20,23,28,20,20,23,28,27,27,27,27,27,23,29,29,20,20,20,12,8,4,4,4,4,12,12,8,8,12,7,12,11,12,12,12,8,4,0,4,0,0,0,4,3,9,13,33,52,55,44,24,8,4,8,12,4,4,8,4,0,4,4,4,8,8,4,0,0,0,9,4,12,12,12,12,4,11,15,15,20,20,28,28,19,23,23,19,19,25,8,8,16,12,8,0,12,12,9,9,12,15,23,32,24,8,4,4,9,8,12,11,16,7,7,17,12,12,12,7,7,12,20,20,28,32,32,28,20,16,12,7,8,-1,-1,-1,-1,-1,-1,-1,-1,-1,-1,-1,-1,-1,-1,-1,-1,-1,-1,-1,-1,-1,-1,-1,-1,-1,-1,-1,-1,-1,-1,-1,-1,-1,-1,-1,-1,-1,-1,-1,-1,-1,-1,-1,-1,-1,-1,-1,-1,-1,-1,-1
-1,-1,-1,-1,-1,-1,-1,-1,-1,-1,-1,-1,-1,-1,-1,-1,-1,-1,-1,-1,-1,-1,-1,-1,-1,-1,-1,-1,-1,-1,-1,-1,-1,-1,-1,-1,-1,4,8,8,4,0,9,7,11,12,8,4,0,4,8,12,4,0,0,0,0,0,4,4,0,0,0,4,7,11,12,8,4,0,4,8,17,12,12,12,4,0,0,0,0,4,0,0,0,9,8,4,4,8,16,16,12,12,12,16,12,7,7,8,18,13,12,16,16,12,4,4,8,3,8,4,8,4,16,20,16,16,16,12,8,4,18,9,21,33,20,16,29,41,39,52,51,59,58,68,50,49,32,20,16,17,12,7,17,17,12,16,24,41,37,28,24,24,38,29,20,20,28,27,27,32,28,27,31,31,31,31,36,36,31,36,36,31,28,19,23,23,20,7,0,8,12,12,12,12,4,4,12,11,7,0,13,3,8,7,8,4,4,0,0,0,0,0,0,4,4,0,0,0,0,0,0,0,9,8,4,0,0,0,0,0,4,8,0,8,3,8,4,4,8,12,7,21,25,16,12,12,3,8,8,3,8,12,12,11,11,15,19,15,12,7,16,16,20,20,20,20,23,28,34,25,20,15,15,15,15,15,20,20,20,28,32,27,23,24,24,20,20,20,20,15,16,12,7,12,16,16,16,8,3,3,4,4,8,3,8,4,4,8,12,12,12,16,15,11,8,12,12,17,12,12,16,16,8,3,8,8,4,4,8,7,7,12,17,8,4,4,8,12,3,8,12,8,4,16,16,16,8,3,8,8,13,8,12,16,25,20,16,8,9,4,4,3,11,16,16,7,8,4,4,12,20,16,4,12,16,20,20,20,23,28,23,19,28,23,19,23,28,28,23,23,28,20,12,16,16,20,20,11,3,0,4,4,3,11,11,3,4,9,8,7,8,4,4,3,4,0,4,8,7,8,4,0,0,4,4,3,21,20,17,4,0,4,7,16,7,3,8,12,12,12,4,0,9,9,0,0,0,4,3,0,7,12,4,12,16,16,15,20,28,27,31,36,36,31,27,32,19,21,13,8,12,12,9,4,4,9,8,4,9,16,23,29,21,12,12,4,9,8,3,12,7,12,12,20,15,15,15,15,25,25,20,19,19,19,20,20,16,12,7,12,12,-1,-1,-1,-1,-1,-1,-1,-1,-1,-1,-1,-1,-1,-1,-1,-1,-1,-1,-1,-1,-1,-1,-1,-1,-1,-1,-1,-1,-1,-1,-1,-1,-1,-1,-1,-1,-1,-1,-1,-1,-1,-1,-1,-1,-1,-1,-1,-1,-1,-1,-1
-1,-1,-1,-1,-1,-1,-1,-1,-1,-1,-1,-1,-1,-1,-1,-1,-1,-1,-1,-1,-1,-1,-1,-1,-1,-1,-1,-1,-1,-1,-1,-1,-1,-1,-1,-1,-1,4,4,4,4,4,12,12,12,7,8,4,0,4,12,8,4,0,0,0,0,0,4,12,8,4,0,0,9,9,0,0,0,0,4,4,4,9,8,7,12,8,4,4,3,4,3,4,0,9,4,0,0,0,3,16,16,12,7,17,12,8,12,8,4,13,7,16,20,16,7,4,4,12,7,17,12,4,18,17,12,4,9,4,13,3,4,9,0,4,4,9,7,20,31,47,56,59,77,63,63,64,65,43,45,45,41,45,44,43,52,65,64,64,64,60,60,56,56,48,35,35,40,35,35,44,43,43,39,35,31,31,35,40,35,36,36,31,27,32,23,20,15,20,17,13,4,0,4,8,4,4,4,12,8,4,3,4,13,8,12,4,0,0,0,0,0,0,0,4,8,8,8,8,4,0,0,4,8,12,4,0,4,8,12,8,3,8,4,4,4,8,4,0,4,8,16,24,19,16,8,4,4,12,12,12,8,8,8,12,12,12,12,12,12,0,4,8,16,11,16,16,29,27,40,31,27,23,20,15,20,19,19,28,27,27,27,23,24,23,28,23,32,32,23,23,20,25,20,25,15,20,24,20,20,16,12,12,17,7,17,8,4,9,12,7,12,16,16,12,8,3,8,7,12,16,16,16,12,12,7,7,8,4,4,8,7,12,11,12,4,4,12,8,3,12,8,4,4,17,20,16,12,12,12,16,25,8,4,12,21,16,16,12,12,3,8,0,12,12,4,0,4,0,0,0,9,8,0,8,16,11,11,20,23,31,31,32,27,28,20,15,15,20,24,15,16,11,12,12,16,20,16,12,8,4,4,4,0,9,9,4,8,0,8,8,4,4,0,4,3,4,0,4,12,12,8,4,0,4,8,4,4,4,8,4,0,4,12,12,12,12,7,7,12,8,4,4,8,8,4,4,8,8,4,4,8,13,8,16,20,20,20,28,31,31,35,39,39,35,31,31,28,12,8,12,8,8,8,4,9,17,16,20,38,33,34,13,9,8,8,3,13,3,8,3,17,20,28,32,28,23,20,20,23,23,24,29,20,15,16,16,12,3,8,4,12,-1,-1,-1,-1,-1,-1,-1,-1,-1,-1,-1,-1,-1,-1,-1,-1,-1,-1,-1,-1,-1,-1,-1,-1,-1,-1,-1,-1,-1,-1,-1,-1,-1,-1,-1,-1,-1,-1,-1,-1,-1,-1,-1,-1,-1,-1,-1,-1,-1,-1,-1
-1,-1,-1,-1,-1,-1,-1,-1,-1,-1,-1,-1,-1,-1,-1,-1,-1,-1,-1,-1,-1,-1,-1,-1,-1,-1,-1,-1,-1,-1,-1,-1,-1,-1,-1,-1,-1,8,4,4,8,8,3,4,4,8,4,0,0,4,8,4,0,0,0,0,0,0,4,8,12,4,0,4,8,8,4,0,0,4,8,9,4,9,0,0,4,9,4,8,12,4,13,4,0,9,4,0,0,0,4,22,8,4,9,13,4,12,7,12,8,13,4,12,17,12,12,4,4,8,17,7,8,4,16,16,16,7,8,0,17,17,17,8,4,8,4,12,12,16,20,29,38,37,50,44,56,63,66,66,85,85,76,63,59,59,62,70,75,70,67,72,63,59,56,47,43,44,40,31,35,39,43,43,44,35,35,35,35,39,39,35,36,36,31,36,31,32,23,23,20,20,12,4,0,4,4,8,12,12,4,3,8,8,12,17,8,8,12,12,8,4,0,0,0,4,8,12,12,12,12,8,4,0,0,4,12,12,12,12,12,12,4,4,4,8,3,8,4,0,0,4,7,16,16,8,8,3,8,4,4,8,12,12,8,4,0,0,0,0,4,8,13,0,4,8,12,11,11,20,32,27,23,28,23,24,23,28,27,31,31,31,32,28,28,28,27,31,36,31,32,32,32,32,32,27,19,20,23,23,23,28,23,24,24,19,24,15,12,8,4,4,8,12,12,12,11,12,12,16,16,20,15,16,16,16,16,16,11,16,8,3,8,12,8,4,4,8,4,4,8,4,0,0,4,13,13,12,16,11,12,21,20,20,9,12,13,8,8,3,8,7,7,7,17,12,4,4,9,8,4,4,8,12,8,4,4,7,24,27,32,31,36,27,24,16,16,15,15,16,16,11,12,7,16,16,15,20,16,12,7,8,3,12,7,7,8,4,4,4,13,4,0,4,4,8,12,8,4,4,12,12,9,0,0,4,8,3,12,8,4,0,4,8,3,8,12,11,12,12,8,4,0,4,8,12,8,4,9,12,12,12,8,17,15,23,28,19,28,31,35,39,43,39,36,28,24,21,17,12,12,7,12,12,4,4,17,20,19,31,49,31,21,8,8,4,0,0,0,3,11,24,32,31,31,36,31,28,20,20,23,28,23,24,24,15,12,4,4,4,4,4,7,-1,-1,-1,-1,-1,-1,-1,-1,-1,-1,-1,-1,-1,-1,-1,-1,-1,-1,-1,-1,-1,-1,-1,-1,-1,-1,-1,-1,-1,-1,-1,-1,-1,-1,-1,-1,-1,-1,-1,-1,-1,-1,-1,-1,-1,-1,-1,-1,-1,-1,-1
-1,-1,-1,-1,-1,-1,-1,-1,-1,-1,-1,-1,-1,-1,-1,-1,-1,-1,-1,-1,-1,-1,-1,-1,-1,-1,-1,-1,-1,-1,-1,-1,-1,-1,-1,-1,-1,8,8,7,7,12,4,0,4,8,4,0,0,4,4,0,0,0,0,0,0,0,0,0,4,8,4,0,0,0,0,0,0,4,8,9,4,9,0,4,12,8,3,8,9,9,13,4,0,9,8,4,0,0,4,14,4,9,8,7,8,3,12,12,16,13,4,4,4,3,3,4,3,8,4,4,0,4,8,12,8,9,0,4,4,9,9,0,4,8,4,3,4,0,4,12,21,8,12,20,40,52,64,76,80,83,74,66,62,63,59,59,63,68,54,55,55,51,51,47,39,36,32,31,31,31,31,31,35,40,35,40,31,36,36,36,36,36,31,31,32,27,27,23,32,28,20,12,4,8,4,9,4,12,8,8,12,13,8,12,8,12,12,12,9,4,3,4,0,0,4,3,4,4,8,12,4,0,0,4,8,12,8,4,4,8,4,4,8,3,8,7,12,12,12,12,7,7,12,17,7,12,8,4,4,3,3,3,4,4,3,4,0,0,4,12,16,12,8,3,8,16,16,20,20,20,24,24,23,28,23,24,23,31,31,32,31,31,31,27,28,32,31,31,32,36,44,43,44,35,40,36,32,27,32,27,27,28,23,19,24,20,16,12,12,4,4,8,12,11,16,11,7,3,12,16,15,15,20,16,16,11,16,11,12,8,3,3,4,4,8,8,4,4,8,4,4,8,16,11,8,12,11,12,12,12,15,20,21,4,8,12,8,4,8,8,3,12,7,8,0,8,7,12,12,12,12,11,12,12,12,16,19,32,27,32,32,24,16,12,7,12,12,12,12,16,16,16,16,16,12,16,16,16,16,11,16,11,12,12,8,4,4,4,13,8,3,4,4,8,12,7,8,8,8,12,11,7,4,0,4,8,8,9,9,8,12,8,3,12,12,12,3,8,12,4,4,12,16,16,12,3,8,9,4,9,21,24,19,28,23,27,31,35,39,43,40,32,25,12,0,3,4,8,12,4,4,3,4,3,16,24,28,36,35,33,8,4,4,4,0,4,13,21,23,44,52,39,35,31,28,20,20,20,28,28,28,24,20,12,4,0,4,4,9,8,4,-1,-1,-1,-1,-1,-1,-1,-1,-1,-1,-1,-1,-1,-1,-1,-1,-1,-1,-1,-1,-1,-1,-1,-1,-1,-1,-1,-1,-1,-1,-1,-1,-1,-1,-1,-1,-1,-1,-1,-1,-1,-1,-1,-1,-1,-1,-1,-1,-1,-1,-1
-1,-1,-1,-1,-1,-1,-1,-1,-1,-1,-1,-1,-1,-1,-1,-1,-1,-1,-1,-1,-1,-1,-1,-1,-1,-1,-1,-1,-1,-1,-1,-1,-1,-1,-1,-1,-1,4,9,8,4,0,0,0,4,8,4,0,0,4,8,4,0,0,0,0,4,8,8,4,4,8,4,0,0,0,0,0,4,8,4,9,4,9,4,3,4,0,4,4,4,12,8,4,0,9,8,4,0,4,8,22,4,4,4,8,8,0,8,12,22,8,8,12,4,12,7,8,13,12,3,12,8,4,0,0,4,8,4,0,4,4,12,12,12,4,12,8,0,8,16,15,24,16,18,8,16,24,41,48,47,59,67,63,59,56,43,43,47,47,47,47,51,47,52,43,43,39,48,43,43,43,39,35,35,39,40,31,27,27,27,31,36,36,31,31,27,23,19,28,23,23,20,11,8,4,12,16,16,13,8,13,4,9,18,8,4,8,4,4,8,4,13,4,0,0,0,0,0,0,0,4,8,4,0,0,0,0,0,0,4,8,4,4,8,7,7,12,16,16,12,7,7,7,12,20,20,16,12,12,12,12,12,12,12,12,12,12,8,4,0,4,8,12,12,4,0,4,12,11,16,7,17,12,16,20,20,15,20,28,28,27,27,27,28,28,23,19,23,31,31,36,40,43,43,43,39,43,39,35,40,31,32,32,27,28,20,15,15,16,7,4,4,12,16,12,7,12,12,12,12,16,15,15,20,16,12,8,3,8,12,11,16,12,12,12,8,4,4,8,4,4,12,16,20,16,12,9,8,3,8,12,12,16,20,16,12,9,9,9,8,4,4,4,4,0,4,8,12,7,7,12,12,12,12,11,11,16,15,20,24,20,20,20,20,16,16,12,12,12,16,20,20,28,24,16,12,12,16,15,20,20,16,12,12,11,12,12,12,0,3,4,9,9,8,4,9,4,8,17,12,12,12,12,8,4,4,8,0,8,16,16,16,12,12,4,0,4,12,8,3,8,0,8,17,12,7,12,4,9,12,11,24,23,20,20,20,23,31,39,39,36,28,12,4,0,4,13,12,17,9,4,0,0,4,12,20,28,23,33,20,21,7,8,4,4,0,8,20,32,35,47,52,44,31,31,27,28,32,28,19,19,20,16,12,12,8,4,4,4,12,8,4,-1,-1,-1,-1,-1,-1,-1,-1,-1,-1,-1,-1,-1,-1,-1,-1,-1,-1,-1,-1,-1,-1,-1,-1,-1,-1,-1,-1,-1,-1,-1,-1,-1,-1,-1,-1,-1,-1,-1,-1,-1,-1,-1,-1,-1,-1,-1,-1,-1,-1,-1
-1,-1,-1,-1,-1,-1,-1,-1,-1,-1,-1,-1,-1,-1,-1,-1,-1,-1,-1,-1,-1,-1,-1,-1,-1,-1,-1,-1,-1,-1,-1,-1,-1,-1,-1,-1,-1,8,8,17,7,12,4,0,4,4,8,4,0,4,4,0,4,3,4,0,4,12,12,4,0,4,4,0,0,0,0,4,8,8,3,13,3,9,3,12,7,12,12,4,4,8,12,12,8,4,4,12,12,16,20,29,12,3,8,7,8,4,0,4,22,8,18,8,4,8,12,8,17,12,4,11,16,8,0,0,0,4,8,8,8,8,4,9,9,12,7,12,0,13,4,9,17,20,29,12,0,12,20,36,39,43,48,52,43,39,48,43,43,43,43,43,48,43,43,48,43,47,43,43,43,43,44,35,31,36,36,31,27,23,23,32,27,32,28,28,23,19,28,23,28,20,16,12,12,4,8,9,18,4,13,7,12,13,4,0,9,8,16,21,12,7,17,4,0,0,0,0,0,0,4,8,9,0,0,0,0,0,0,0,4,8,4,0,4,8,3,7,16,16,16,12,7,7,12,7,17,12,12,12,8,8,8,12,12,8,8,8,9,0,0,0,0,0,4,4,0,0,4,8,4,4,4,4,8,12,12,15,24,20,20,23,28,24,23,23,28,28,28,28,23,27,31,35,44,39,43,39,39,39,39,39,44,31,27,23,20,15,16,12,8,4,4,4,9,4,8,4,4,7,16,15,15,20,24,20,16,12,17,12,16,20,20,16,12,8,3,8,12,8,3,8,7,16,16,20,16,17,9,4,4,8,12,12,20,20,16,12,7,12,4,0,4,4,4,0,0,4,8,12,12,12,12,12,11,12,16,11,12,13,13,9,17,16,16,20,24,20,15,15,15,20,20,23,28,20,15,15,20,15,20,20,16,16,11,12,12,16,16,12,8,8,3,8,8,8,8,12,12,20,15,11,3,4,8,4,4,12,12,12,16,16,12,12,8,3,8,12,11,12,7,8,4,0,4,7,16,8,8,12,12,8,20,23,28,19,28,32,31,40,36,28,20,16,8,8,12,16,17,13,12,4,0,4,12,20,28,32,23,16,8,8,8,3,8,4,4,17,24,32,36,41,32,27,31,31,31,31,36,31,27,28,20,16,12,12,12,4,4,4,3,4,4,-1,-1,-1,-1,-1,-1,-1,-1,-1,-1,-1,-1,-1,-1,-1,-1,-1,-1,-1,-1,-1,-1,-1,-1,-1,-1,-1,-1,-1,-1,-1,-1,-1,-1,-1,-1,-1,-1,-1,-1,-1,-1,-1,-1,-1,-1,-1,-1,-1,-1,-1
-1,-1,-1,-1,-1,-1,-1,-1,-1,-1,-1,-1,-1,-1,-1,-1,-1,-1,-1,-1,-1,-1,-1,-1,-1,-1,-1,-1,-1,-1,-1,-1,-1,-1,-1,-1,-1,8,8,7,12,9,0,0,4,4,8,4,0,4,4,0,0,9,0,0,4,9,8,4,4,8,4,0,4,8,12,12,8,3,8,8,4,8,12,12,12,12,8,3,8,16,16,16,12,3,7,20,23,28,23,23,20,12,8,8,16,20,16,21,29,15,17,4,9,4,18,3,8,8,4,12,17,17,12,12,8,3,12,12,4,17,13,12,16,16,12,4,0,13,21,16,17,13,16,12,0,7,20,29,28,31,31,35,43,47,47,39,39,43,43,43,39,43,43,39,43,39,39,35,31,31,36,36,31,31,32,27,27,23,23,19,24,20,15,15,20,23,23,32,23,23,20,16,20,25,25,15,16,3,9,4,7,11,12,7,12,16,9,18,13,13,3,4,0,0,0,0,0,0,4,12,8,4,0,0,0,0,0,0,4,8,4,4,3,3,12,12,12,16,11,12,7,7,7,12,4,0,0,0,0,0,0,0,0,0,0,4,9,8,8,4,0,0,4,12,8,4,0,4,0,4,4,4,8,7,16,15,24,20,15,20,23,36,27,28,27,31,36,31,36,31,36,36,35,39,39,43,39,39,39,43,39,31,28,20,15,16,12,12,11,12,3,12,12,8,12,8,0,12,16,15,15,20,24,20,15,15,20,15,16,16,16,16,16,12,12,12,7,7,16,11,16,12,11,16,12,16,12,8,16,16,16,12,7,17,12,4,4,3,4,0,4,4,4,0,0,0,0,4,8,12,16,15,16,16,16,12,0,12,21,12,12,4,11,20,23,28,28,28,28,23,24,16,16,16,15,15,20,15,16,16,12,16,16,16,16,15,15,15,16,12,12,21,7,12,15,19,20,20,15,16,16,8,3,8,0,8,12,12,8,4,0,0,0,4,12,12,12,4,4,9,3,4,3,16,20,8,13,21,8,9,17,25,23,27,36,44,39,36,28,20,20,24,20,29,24,11,13,11,7,3,12,25,32,40,44,39,31,24,11,3,4,4,8,4,4,16,28,31,31,28,19,23,28,28,27,31,36,31,27,24,12,7,8,4,4,4,4,0,0,4,8,-1,-1,-1,-1,-1,-1,-1,-1,-1,-1,-1,-1,-1,-1,-1,-1,-1,-1,-1,-1,-1,-1,-1,-1,-1,-1,-1,-1,-1,-1,-1,-1,-1,-1,-1,-1,-1,-1,-1,-1,-1,-1,-1,-1,-1,-1,-1,-1,-1,-1,-1
-1,-1,-1,-1,-1,-1,-1,-1,-1,-1,-1,-1,-1,-1,-1,-1,-1,-1,-1,-1,-1,-1,-1,-1,-1,-1,-1,-1,-1,-1,-1,-1,-1,-1,-1,-1,-1,4,4,4,4,4,0,4,8,4,4,4,4,8,3,3,4,8,8,4,4,12,8,4,0,4,4,4,8,12,12,8,4,4,8,0,7,12,18,9,4,0,4,8,12,7,12,16,7,8,12,15,28,23,19,29,20,16,12,17,21,24,23,29,19,20,21,13,12,16,30,12,12,20,21,3,8,12,12,12,12,0,8,9,9,17,7,8,9,12,8,4,4,13,18,17,11,7,0,8,8,0,12,12,15,28,31,35,43,51,47,48,39,40,35,40,40,36,31,36,36,36,36,36,31,31,32,31,31,36,31,32,27,27,23,23,20,15,15,15,20,23,23,19,23,23,28,28,20,20,24,20,16,16,12,17,16,16,16,12,16,24,20,20,15,16,16,16,16,8,4,0,0,0,4,12,12,12,12,8,4,4,3,4,0,4,9,8,12,12,16,16,12,7,7,12,8,3,12,7,8,4,4,8,12,8,4,0,0,0,0,4,12,12,12,4,0,0,4,8,12,8,4,4,4,8,3,8,3,12,16,16,16,12,16,20,32,32,27,31,31,35,39,43,44,35,36,36,35,40,35,36,36,35,40,35,39,39,36,28,20,16,16,11,16,11,16,16,16,21,11,12,0,8,17,12,12,16,20,15,15,15,20,15,16,16,16,20,24,20,20,16,21,16,16,16,11,12,12,7,16,16,16,9,8,16,16,16,12,4,4,12,17,12,12,12,12,4,4,0,0,0,0,0,4,8,12,12,16,16,16,7,4,4,9,0,3,0,12,16,20,23,31,31,31,32,28,15,16,16,15,16,16,16,16,12,16,11,16,11,12,12,16,16,16,16,15,25,16,16,16,25,15,20,16,16,16,16,16,11,7,4,0,0,0,4,8,12,8,3,12,8,9,4,8,16,16,25,29,24,24,16,21,21,16,25,12,12,24,40,52,47,43,36,27,23,19,23,27,32,28,12,3,12,12,16,20,27,40,47,50,47,35,23,20,12,4,4,4,0,13,29,32,31,32,29,15,15,20,23,28,27,27,27,29,16,7,12,12,0,8,4,4,4,8,12,12,-1,-1,-1,-1,-1,-1,-1,-1,-1,-1,-1,-1,-1,-1,-1,-1,-1,-1,-1,-1,-1,-1,-1,-1,-1,-1,-1,-1,-1,-1,-1,-1,-1,-1,-1,-1,-1,-1,-1,-1,-1,-1,-1,-1,-1,-1,-1,-1,-1,-1,-1
-1,-1,-1,-1,-1,-1,-1,-1,-1,-1,-1,-1,-1,-1,-1,-1,-1,-1,-1,-1,-1,-1,-1,-1,-1,-1,-1,-1,-1,-1,-1,-1,-1,-1,-1,-1,-1,4,4,8,4,8,4,0,4,4,8,4,4,8,4,9,0,0,9,0,4,3,4,0,4,8,8,4,4,4,0,0,0,4,4,4,13,9,8,8,4,0,4,8,7,17,16,20,15,25,16,11,16,15,24,24,16,11,16,20,11,20,23,33,20,15,16,8,16,28,36,23,19,29,20,12,12,11,12,4,9,8,7,12,4,4,12,12,8,4,4,0,0,3,16,12,8,12,12,9,17,3,9,12,16,20,28,31,44,48,47,60,55,48,40,31,32,31,31,36,31,32,31,36,31,27,27,31,31,32,27,27,28,23,23,23,20,15,15,20,28,23,23,27,27,32,31,31,28,25,16,16,12,7,21,16,16,16,12,3,3,18,9,8,12,12,12,25,12,9,0,0,0,0,4,8,12,12,12,12,12,12,12,12,8,3,12,8,9,4,12,12,16,12,7,8,3,8,3,8,12,12,12,12,12,12,0,3,4,0,0,4,4,4,4,12,8,4,0,0,4,8,4,4,4,8,7,7,12,7,7,12,7,16,16,20,20,19,27,27,31,31,36,36,31,31,32,31,31,32,27,28,19,23,32,31,44,44,35,31,28,19,24,20,20,15,20,15,20,20,12,4,0,0,4,4,8,7,16,16,15,15,20,15,20,20,15,20,23,28,28,28,28,20,16,16,11,16,7,12,16,16,11,11,12,12,18,4,8,7,12,16,16,12,12,12,8,4,4,0,0,0,0,0,4,8,3,8,12,16,15,16,16,12,8,4,0,0,4,7,16,15,25,25,25,24,19,20,20,15,15,16,12,12,12,16,20,15,20,16,16,12,12,12,7,12,15,29,20,20,16,11,16,16,12,12,11,16,11,16,12,12,12,12,12,12,12,12,12,7,7,12,12,8,12,29,27,31,31,37,28,20,33,41,40,36,27,32,40,43,52,43,36,32,28,24,15,19,27,27,20,3,0,4,7,20,23,27,36,44,50,42,24,16,16,8,4,4,4,8,25,28,32,28,20,11,16,20,28,31,31,32,27,20,16,7,8,4,4,4,4,4,4,0,9,8,4,-1,-1,-1,-1,-1,-1,-1,-1,-1,-1,-1,-1,-1,-1,-1,-1,-1,-1,-1,-1,-1,-1,-1,-1,-1,-1,-1,-1,-1,-1,-1,-1,-1,-1,-1,-1,-1,-1,-1,-1,-1,-1,-1,-1,-1,-1,-1,-1,-1,-1,-1
-1,-1,-1,-1,-1,-1,-1,-1,-1,-1,-1,-1,-1,-1,-1,-1,-1,-1,-1,-1,-1,-1,-1,-1,-1,-1,-1,-1,-1,-1,-1,-1,-1,-1,-1,-1,-1,4,8,9,9,8,4,4,8,7,8,4,4,4,4,3,4,4,3,4,0,0,0,0,0,4,8,3,8,4,0,0,0,4,4,4,12,8,0,3,3,8,12,3,12,16,16,21,20,23,23,15,12,12,20,25,20,25,15,20,20,23,27,32,24,16,7,4,16,23,23,24,16,17,3,8,9,13,8,0,12,12,3,8,7,12,7,7,8,14,8,8,4,16,15,16,17,4,13,4,18,8,12,4,16,23,27,27,32,36,43,52,60,55,56,43,44,35,31,31,32,31,35,40,31,32,27,27,28,23,28,23,19,23,23,20,15,20,23,28,23,28,27,31,36,36,31,31,31,33,16,16,21,21,11,11,12,7,7,12,4,3,9,4,0,0,4,13,4,4,4,0,0,0,0,4,8,12,8,4,8,8,8,8,12,3,3,4,4,13,0,8,12,7,8,8,8,7,7,8,8,8,8,4,0,4,4,9,0,0,0,0,0,9,4,8,12,12,12,8,4,4,8,4,4,4,8,7,7,12,8,3,12,7,16,16,20,23,28,28,28,23,19,23,32,27,32,27,27,27,27,27,28,20,20,23,32,32,31,31,31,32,27,27,23,19,24,20,20,20,7,4,0,4,8,0,8,12,7,12,12,12,16,16,16,16,15,15,20,23,23,24,19,20,20,24,20,20,16,16,11,12,16,16,15,15,20,17,0,12,12,12,11,16,12,12,12,12,12,4,0,0,0,0,4,4,8,12,12,16,16,16,16,16,12,12,12,12,12,12,12,11,12,8,3,12,12,12,16,20,19,20,16,12,12,12,16,20,24,19,28,28,20,12,7,12,15,19,20,16,16,12,12,11,12,7,12,7,8,4,4,8,12,16,15,16,12,12,7,7,12,12,16,21,20,31,39,39,31,29,29,19,45,39,39,43,43,43,39,36,32,31,31,23,12,3,7,16,25,25,16,8,4,4,12,20,23,36,44,32,11,3,8,8,4,0,4,12,7,11,33,28,25,16,16,16,20,28,27,32,31,31,32,16,8,8,4,4,8,0,8,4,4,4,8,8,4,-1,-1,-1,-1,-1,-1,-1,-1,-1,-1,-1,-1,-1,-1,-1,-1,-1,-1,-1,-1,-1,-1,-1,-1,-1,-1,-1,-1,-1,-1,-1,-1,-1,-1,-1,-1,-1,-1,-1,-1,-1,-1,-1,-1,-1,-1,-1,-1,-1,-1,-1
-1,-1,-1,-1,-1,-1,-1,-1,-1,-1,-1,-1,-1,-1,-1,-1,-1,-1,-1,-1,-1,-1,-1,-1,-1,-1,-1,-1,-1,-1,-1,-1,-1,-1,-1,-1,-1,12,12,8,9,4,4,0,4,8,4,0,4,8,4,0,0,0,0,0,0,0,0,4,8,12,12,4,4,4,0,0,4,8,4,4,3,4,4,12,12,16,16,16,12,16,16,11,16,15,20,21,8,8,12,20,28,32,27,32,28,32,27,27,32,20,20,17,13,9,4,4,8,9,4,4,12,11,12,3,3,8,8,4,4,4,4,12,20,29,21,13,4,17,16,20,24,20,25,11,17,17,16,16,14,25,28,28,23,27,31,31,32,45,48,48,39,35,31,31,32,31,35,40,35,36,31,28,19,24,20,15,20,24,20,15,20,23,27,27,32,27,27,27,32,31,31,31,31,36,20,12,7,21,16,12,12,12,17,8,4,4,7,16,12,4,4,4,12,11,12,4,0,0,0,4,12,16,12,4,0,0,0,0,4,12,12,8,4,9,4,8,8,8,3,12,7,7,8,4,0,0,0,0,0,4,4,3,4,0,0,0,4,3,4,0,4,8,12,12,8,3,8,4,4,0,4,4,0,4,8,8,3,12,12,16,20,24,24,23,23,23,24,28,27,32,23,28,27,31,36,31,31,32,28,23,20,19,27,31,31,31,32,27,27,32,27,28,20,16,12,12,12,12,8,4,4,8,12,4,0,4,8,12,7,7,12,16,15,15,15,15,15,15,20,24,20,16,16,11,12,3,3,13,9,12,8,9,0,4,4,12,16,20,15,15,15,15,16,16,12,12,8,0,12,7,8,4,4,12,12,12,16,15,15,15,15,15,15,16,12,12,12,12,4,4,4,12,16,20,29,19,23,23,20,16,16,15,20,28,31,31,27,23,24,20,15,16,12,8,3,8,12,12,7,8,4,9,12,12,12,8,4,9,12,12,12,12,16,16,16,15,15,25,24,31,49,44,28,16,12,23,40,40,39,43,47,47,43,35,36,31,32,25,3,9,12,12,3,4,4,8,0,12,20,32,36,39,40,37,20,20,11,3,0,4,8,7,12,16,24,19,11,12,12,15,23,23,28,27,32,23,21,7,8,4,0,4,8,4,4,4,12,8,3,8,4,-1,-1,-1,-1,-1,-1,-1,-1,-1,-1,-1,-1,-1,-1,-1,-1,-1,-1,-1,-1,-1,-1,-1,-1,-1,-1,-1,-1,-1,-1,-1,-1,-1,-1,-1,-1,-1,-1,-1,-1,-1,-1,-1,-1,-1,-1,-1,-1,-1,-1,-1
-1,-1,-1,-1,-1,-1,-1,-1,-1,-1,-1,-1,-1,-1,-1,-1,-1,-1,-1,-1,-1,-1,-1,-1,-1,-1,-1,-1,-1,-1,-1,-1,-1,-1,-1,-1,-1,8,4,4,13,3,8,4,0,4,0,0,4,8,4,0,0,0,0,0,4,8,12,12,12,12,8,3,8,3,8,12,12,8,4,4,8,7,12,11,24,23,28,28,20,15,15,15,20,16,16,16,34,24,23,28,23,27,31,31,27,28,28,27,32,27,23,23,20,12,12,3,12,12,4,4,4,13,8,4,4,8,7,12,13,8,12,4,12,28,27,28,20,8,12,16,20,20,20,16,13,8,12,25,16,9,12,16,21,16,25,28,28,23,27,31,31,31,31,35,40,35,31,36,31,36,36,27,23,20,20,23,28,19,23,28,28,23,23,27,27,27,28,28,23,27,31,31,27,23,20,12,9,4,0,4,3,4,4,8,17,12,12,21,12,4,4,12,16,16,7,8,4,0,0,4,12,21,12,4,0,0,0,0,4,8,12,12,12,25,12,4,0,4,12,16,12,8,4,0,0,0,0,0,4,8,4,0,0,0,0,0,0,0,0,0,0,4,8,12,9,0,4,8,12,4,4,8,4,0,4,4,3,11,16,12,12,17,12,12,21,25,24,19,24,19,24,19,23,28,32,31,31,31,27,28,19,23,28,28,27,27,32,31,35,40,35,31,27,28,24,20,15,16,12,12,12,12,17,12,8,4,0,4,8,12,16,16,11,16,15,15,15,15,16,16,16,16,12,8,4,4,4,8,12,12,7,17,12,7,16,16,20,20,15,15,15,15,15,20,15,16,12,0,8,12,3,8,12,4,4,8,12,16,15,16,12,12,12,12,8,4,0,4,4,4,4,8,12,7,21,15,28,28,20,20,15,15,20,23,31,31,27,28,23,20,16,12,12,12,12,12,11,12,12,8,0,8,12,16,16,12,7,7,8,4,4,8,16,16,15,15,15,25,24,29,34,27,13,12,4,20,23,36,39,48,47,47,47,43,39,36,20,8,9,17,11,17,0,12,12,17,12,16,24,36,43,35,28,24,15,20,17,4,0,4,8,4,3,16,20,15,15,15,15,20,23,23,19,23,33,15,12,12,8,4,0,4,4,4,8,3,8,12,4,4,4,-1,-1,-1,-1,-1,-1,-1,-1,-1,-1,-1,-1,-1,-1,-1,-1,-1,-1,-1,-1,-1,-1,-1,-1,-1,-1,-1,-1,-1,-1,-1,-1,-1,-1,-1,-1,-1,-1,-1,-1,-1,-1,-1,-1,-1,-1,-1,-1,-1,-1,-1
-1,-1,-1,-1,-1,-1,-1,-1,-1,-1,-1,-1,-1,-1,-1,-1,-1,-1,-1,-1,-1,-1,-1,-1,-1,-1,-1,-1,-1,-1,-1,-1,-1,-1,-1,-1,-1,0,0,4,3,3,8,4,4,8,4,0,0,4,4,0,0,4,3,4,4,12,12,7,7,12,12,12,8,3,12,12,8,4,0,4,12,17,12,16,25,33,28,23,23,20,15,15,20,16,12,25,27,32,28,32,28,28,28,23,28,32,23,27,31,31,27,23,24,16,4,4,8,7,7,8,13,4,8,21,16,12,12,16,16,16,12,8,13,25,23,23,20,16,16,11,16,11,12,4,4,12,12,21,20,29,17,8,8,4,3,20,23,28,23,28,27,31,31,31,36,31,31,32,27,27,32,28,23,23,24,28,23,23,28,28,23,23,23,19,23,28,27,31,31,32,28,28,28,24,16,16,21,7,8,8,8,12,7,11,20,15,7,9,4,12,12,4,9,8,8,8,4,0,4,7,16,15,16,12,8,4,0,0,0,0,4,7,15,19,15,12,12,7,7,12,8,4,0,0,0,0,0,0,0,4,4,0,0,0,0,0,0,0,4,3,4,4,12,12,4,4,4,12,7,8,3,8,4,0,0,4,9,12,12,4,0,4,8,12,13,12,20,20,20,20,23,23,20,15,20,28,31,31,28,19,23,23,19,23,32,31,36,35,39,39,35,31,31,31,31,32,28,23,20,16,11,16,20,15,16,3,0,0,4,7,11,16,12,12,12,12,12,12,7,7,12,12,8,4,0,4,4,8,12,16,20,20,15,20,24,20,20,28,23,20,15,15,15,20,16,12,7,12,12,12,0,12,8,4,0,4,8,12,12,12,4,0,4,8,12,12,8,4,4,4,8,4,4,8,8,8,17,16,16,20,15,15,20,23,28,32,27,27,28,28,15,12,7,12,8,3,12,12,8,4,0,4,8,12,12,3,8,4,4,4,8,7,12,16,15,15,15,20,3,30,42,41,32,15,3,8,24,40,39,47,48,43,47,43,35,32,20,16,25,20,12,9,4,8,12,16,15,20,32,31,45,28,20,16,8,4,4,4,0,4,4,4,8,16,24,20,15,15,15,15,20,23,28,23,24,16,11,11,7,4,0,4,8,0,8,4,0,4,4,4,-1,-1,-1,-1,-1,-1,-1,-1,-1,-1,-1,-1,-1,-1,-1,-1,-1,-1,-1,-1,-1,-1,-1,-1,-1,-1,-1,-1,-1,-1,-1,-1,-1,-1,-1,-1,-1,-1,-1,-1,-1,-1,-1,-1,-1,-1,-1,-1,-1,-1,-1,-1
-1,-1,-1,-1,-1,-1,-1,-1,-1,-1,-1,-1,-1,-1,-1,-1,-1,-1,-1,-1,-1,-1,-1,-1,-1,-1,-1,-1,-1,-1,-1,-1,-1,-1,-1,-1,-1,0,0,4,3,4,4,4,4,8,4,0,4,8,4,4,8,12,12,12,12,4,0,4,12,12,12,8,4,4,12,8,4,0,0,0,4,4,3,4,4,17,15,23,23,20,15,15,20,16,17,8,25,27,23,24,24,20,20,20,19,24,28,31,31,31,31,32,27,24,12,12,8,12,16,12,17,8,12,16,20,20,24,20,16,12,12,12,12,17,16,12,12,20,16,16,8,9,12,8,4,12,7,12,25,27,32,25,12,7,8,14,12,16,24,27,36,31,31,31,27,23,28,23,32,27,27,32,27,28,28,19,23,23,23,28,28,23,19,28,27,27,27,28,32,32,27,23,23,23,24,20,16,12,12,12,12,12,9,3,21,12,12,7,12,7,8,0,3,9,8,4,4,0,0,9,13,8,12,12,9,4,8,12,12,12,12,12,12,16,12,12,12,12,8,4,0,0,0,0,0,0,0,0,4,8,4,0,0,0,0,0,0,0,4,12,12,12,4,4,13,4,0,4,0,4,4,8,8,4,4,8,12,4,4,9,8,12,16,15,20,16,16,16,20,20,20,23,23,24,23,23,27,31,31,32,27,27,28,27,27,32,31,35,40,35,31,31,31,31,31,36,31,31,28,20,25,20,24,15,16,12,12,8,4,4,8,8,3,4,0,0,0,4,8,8,4,0,0,0,0,4,8,12,16,15,20,28,28,23,23,28,23,23,28,28,28,28,28,24,11,7,12,16,15,16,12,17,8,4,0,4,8,4,4,8,4,8,12,12,12,12,12,4,4,4,8,12,12,8,3,3,4,3,16,28,28,28,28,23,20,20,28,28,28,23,20,16,12,4,4,8,4,0,0,0,0,4,8,4,12,7,12,3,8,12,11,16,16,15,15,15,15,16,9,29,31,27,30,9,16,37,44,56,47,39,35,39,43,44,32,20,17,12,16,7,4,4,4,8,16,16,20,28,36,27,25,12,9,4,0,0,4,4,0,4,4,12,25,19,23,20,15,15,15,15,15,20,23,28,25,12,12,12,12,4,0,4,8,4,4,8,4,4,4,4,4,-1,-1,-1,-1,-1,-1,-1,-1,-1,-1,-1,-1,-1,-1,-1,-1,-1,-1,-1,-1,-1,-1,-1,-1,-1,-1,-1,-1,-1,-1,-1,-1,-1,-1,-1,-1,-1,-1,-1,-1,-1,-1,-1,-1,-1,-1,-1,-1,-1,-1,-1
-1,-1,-1,-1,-1,-1,-1,-1,-1,-1,-1,-1,-1,-1,-1,-1,-1,-1,-1,-1,-1,-1,-1,-1,-1,-1,-1,-1,-1,-1,-1,-1,-1,-1,-1,-1,-1,4,3,4,9,4,4,4,8,3,8,0,8,8,3,8,12,8,8,8,8,3,8,12,4,0,0,0,0,4,8,12,4,0,0,4,8,4,12,8,4,8,16,23,23,28,20,16,16,20,20,21,12,20,25,20,15,25,20,28,28,27,31,31,31,35,39,44,36,32,20,16,16,7,17,12,16,4,4,4,8,20,28,23,20,16,16,29,33,12,4,8,12,12,7,8,4,8,9,13,8,12,8,8,12,23,31,27,25,16,20,12,4,16,20,28,36,32,31,31,31,32,23,27,27,32,28,28,23,23,27,32,27,27,28,28,23,23,28,23,28,28,28,23,19,23,28,28,23,19,20,11,3,9,4,12,12,3,9,9,9,4,8,17,7,12,12,8,4,4,3,12,16,8,4,4,4,13,4,8,8,4,12,12,12,12,8,4,4,13,4,0,0,4,8,8,4,0,0,0,0,0,0,0,0,4,4,0,0,0,0,0,0,0,4,9,8,8,4,4,9,4,4,8,3,8,4,4,8,4,0,4,3,4,4,12,12,12,16,16,20,16,16,16,20,20,15,20,23,28,28,28,23,27,31,36,36,31,31,27,23,27,27,27,32,31,31,31,31,35,39,44,35,36,31,27,28,23,23,15,11,16,15,16,16,7,17,8,4,0,0,0,0,0,9,12,8,4,0,0,0,4,8,12,15,23,27,27,27,28,27,31,31,32,27,31,31,27,32,23,24,20,20,20,23,28,28,28,15,16,8,3,12,12,12,8,4,12,8,4,4,8,8,3,17,8,3,7,11,12,12,12,7,16,15,23,28,28,20,16,12,12,16,16,15,16,12,12,8,4,4,8,3,8,8,4,0,4,12,16,11,16,8,4,3,11,20,20,20,15,15,15,20,24,29,25,21,25,33,32,44,51,50,51,47,43,43,40,32,29,21,4,12,7,8,3,8,17,16,16,20,20,28,31,31,28,12,4,4,0,0,0,4,8,4,4,4,12,29,28,19,28,28,28,23,20,15,15,15,20,16,12,16,7,3,8,4,0,4,0,4,8,4,4,4,0,-1,-1,-1,-1,-1,-1,-1,-1,-1,-1,-1,-1,-1,-1,-1,-1,-1,-1,-1,-1,-1,-1,-1,-1,-1,-1,-1,-1,-1,-1,-1,-1,-1,-1,-1,-1,-1,-1,-1,-1,-1,-1,-1,-1,-1,-1,-1,-1,-1,-1,-1,-1
-1,-1,-1,-1,-1,-1,-1,-1,-1,-1,-1,-1,-1,-1,-1,-1,-1,-1,-1,-1,-1,-1,-1,-1,-1,-1,-1,-1,-1,-1,-1,-1,-1,-1,-1,-1,-1,4,13,0,3,0,8,3,8,3,8,0,8,3,8,8,4,0,0,0,4,8,12,8,4,0,0,0,0,4,8,12,4,4,8,12,8,0,12,11,12,3,12,20,28,23,15,12,7,16,24,29,11,7,12,15,23,32,32,31,31,31,31,31,31,35,44,40,36,23,20,15,20,12,8,11,16,8,13,8,4,8,16,24,28,23,20,24,32,20,16,21,11,16,12,12,20,25,15,16,12,8,11,20,11,20,23,28,33,20,20,11,14,11,20,15,20,20,28,31,31,36,31,27,23,23,28,28,28,28,28,23,32,23,20,15,20,28,23,28,23,19,23,28,28,28,23,19,24,20,15,25,12,9,4,12,16,20,17,4,13,4,0,4,12,11,12,12,0,8,8,12,21,8,4,8,8,3,4,8,4,4,4,0,0,0,0,0,4,9,4,0,0,4,8,4,8,8,4,0,0,0,0,0,0,4,4,0,0,0,0,0,0,0,4,8,4,0,0,4,13,4,4,8,0,8,4,0,4,4,0,0,0,0,4,3,4,0,4,12,7,16,16,16,16,16,16,12,16,16,20,20,24,19,28,27,32,28,28,23,19,23,28,23,19,28,27,31,31,35,44,39,39,35,31,31,32,23,20,15,15,16,12,16,16,20,16,12,8,4,0,4,8,7,7,12,12,12,8,4,4,8,12,16,20,28,28,28,28,27,31,31,36,36,31,31,31,40,31,40,40,36,27,27,27,31,31,31,27,32,23,24,20,15,16,7,4,4,4,8,12,12,8,9,12,12,12,12,12,12,8,8,12,7,12,12,16,16,12,4,0,0,4,12,12,12,8,4,0,4,4,4,8,12,12,4,4,7,11,12,12,7,12,17,12,12,16,20,20,15,15,20,28,31,44,43,43,47,60,64,64,60,47,43,43,43,39,32,16,4,12,12,8,13,12,7,12,16,20,20,20,20,23,32,23,25,12,7,8,4,0,0,4,8,12,17,16,29,32,27,32,27,27,28,28,23,20,15,16,17,8,8,12,12,7,8,4,4,8,0,8,12,4,4,8,3,8,-1,-1,-1,-1,-1,-1,-1,-1,-1,-1,-1,-1,-1,-1,-1,-1,-1,-1,-1,-1,-1,-1,-1,-1,-1,-1,-1,-1,-1,-1,-1,-1,-1,-1,-1,-1,-1,-1,-1,-1,-1,-1,-1,-1,-1,-1,-1,-1,-1,-1,-1
-1,-1,-1,-1,-1,-1,-1,-1,-1,-1,-1,-1,-1,-1,-1,-1,-1,-1,-1,-1,-1,-1,-1,-1,-1,-1,-1,-1,-1,-1,-1,-1,-1,-1,-1,-1,-1,4,13,4,0,4,8,4,4,4,12,8,3,8,8,4,0,0,0,4,8,8,4,0,4,8,12,12,12,12,12,8,4,4,12,8,4,4,17,20,16,16,12,16,16,16,16,16,11,11,20,19,29,23,28,23,27,31,31,27,27,31,31,31,31,31,32,28,20,20,20,15,16,7,3,12,12,12,9,8,4,9,4,16,24,24,11,12,17,16,20,20,16,16,11,11,20,20,16,8,4,4,17,16,12,12,16,20,20,16,13,17,8,8,20,20,23,32,23,27,31,40,35,31,27,27,31,31,27,23,20,20,20,15,15,15,20,20,23,23,28,28,28,23,23,28,28,28,23,32,27,27,24,25,13,8,13,18,12,17,8,12,12,12,11,12,8,4,4,13,8,8,13,13,7,17,12,8,9,4,3,4,9,8,8,4,0,0,4,13,4,0,0,4,12,8,8,12,8,4,0,0,0,0,0,4,8,8,8,12,8,4,0,0,4,8,8,4,0,4,3,4,4,8,3,8,4,0,4,8,8,3,4,4,8,12,8,4,0,4,8,3,8,12,12,16,16,16,12,16,16,15,20,24,19,24,20,15,20,23,28,20,20,24,20,20,20,28,27,31,36,31,36,32,27,31,32,19,15,15,15,16,16,12,16,20,20,20,16,16,12,12,12,12,12,12,12,16,16,16,12,12,16,15,15,20,20,23,31,31,31,31,35,40,35,31,35,35,40,39,43,44,35,31,27,27,31,31,31,31,32,23,28,23,15,12,3,12,16,16,16,12,7,3,8,12,16,16,7,4,4,8,12,4,0,0,9,17,11,12,4,0,4,8,4,4,8,4,0,4,4,4,9,12,12,4,0,9,12,17,7,12,15,24,20,12,12,20,20,15,20,28,31,35,39,47,51,59,71,71,54,52,39,35,40,40,28,20,12,4,12,8,0,8,8,8,12,20,24,20,20,24,23,28,19,16,7,8,4,4,3,4,0,4,7,16,24,32,31,32,31,31,36,32,27,27,32,23,15,12,12,12,8,3,8,4,4,4,8,0,12,8,4,4,8,12,12,-1,-1,-1,-1,-1,-1,-1,-1,-1,-1,-1,-1,-1,-1,-1,-1,-1,-1,-1,-1,-1,-1,-1,-1,-1,-1,-1,-1,-1,-1,-1,-1,-1,-1,-1,-1,-1,-1,-1,-1,-1,-1,-1,-1,-1,-1,-1,-1,-1,-1,-1
-1,-1,-1,-1,-1,-1,-1,-1,-1,-1,-1,-1,-1,-1,-1,-1,-1,-1,-1,-1,-1,-1,-1,-1,-1,-1,-1,-1,-1,-1,-1,-1,-1,-1,-1,-1,-1,4,8,8,4,4,8,3,12,7,7,12,7,8,4,0,4,8,12,12,8,4,0,0,4,12,12,12,12,8,4,0,0,4,12,8,4,0,9,16,20,24,15,21,8,12,15,28,23,24,20,20,32,36,31,27,27,31,31,32,32,31,31,31,27,23,27,31,36,32,29,23,28,25,17,3,8,7,21,17,12,4,4,8,13,4,8,17,8,12,7,17,8,8,12,8,4,4,8,8,4,4,8,4,8,7,12,12,8,0,8,8,4,4,17,15,32,27,27,27,31,36,36,31,31,27,28,28,28,23,20,16,16,12,16,20,24,19,23,23,19,23,28,28,23,20,20,23,32,27,27,28,28,23,16,8,11,12,4,8,12,12,12,12,12,4,4,4,4,12,8,8,4,12,20,16,16,12,12,3,13,4,9,12,16,12,4,0,4,3,4,0,0,4,4,4,4,4,8,8,4,0,0,0,0,4,8,12,12,12,12,12,12,8,4,4,8,8,8,8,8,4,4,8,4,4,12,8,3,8,12,12,12,12,12,12,12,12,8,3,8,12,8,3,8,12,16,16,15,20,20,16,16,24,23,20,15,20,23,28,23,15,12,16,11,16,16,20,20,23,32,23,19,23,32,31,31,28,20,15,15,20,20,15,15,20,23,23,20,20,15,16,12,12,16,16,12,12,16,16,16,12,12,16,12,16,15,28,31,31,31,31,35,40,35,31,31,31,31,31,35,39,35,31,31,32,31,31,31,31,27,28,27,31,36,37,33,24,20,20,15,16,12,3,13,9,9,9,13,8,12,12,7,7,12,12,11,12,13,8,4,0,4,8,4,0,4,4,0,4,4,4,8,12,8,4,4,8,4,12,11,20,23,23,23,24,24,24,23,32,40,44,43,43,48,47,51,60,65,57,40,32,27,27,28,20,12,12,4,4,4,0,0,4,9,7,16,15,20,16,24,36,27,24,20,12,8,4,0,0,9,0,4,8,16,20,32,31,31,40,40,35,40,35,31,35,40,31,20,16,12,12,12,0,8,4,4,4,4,4,8,4,0,0,4,8,12,-1,-1,-1,-1,-1,-1,-1,-1,-1,-1,-1,-1,-1,-1,-1,-1,-1,-1,-1,-1,-1,-1,-1,-1,-1,-1,-1,-1,-1,-1,-1,-1,-1,-1,-1,-1,-1,-1,-1,-1,-1,-1,-1,-1,-1,-1,-1,-1,-1,-1,-1
-1,-1,-1,-1,-1,-1,-1,-1,-1,-1,-1,-1,-1,-1,-1,-1,-1,-1,-1,-1,-1,-1,-1,-1,-1,-1,-1,-1,-1,-1,-1,-1,-1,-1,-1,-1,-1,8,0,8,12,12,7,7,7,12,4,4,8,4,0,0,4,12,12,8,4,0,0,0,4,4,0,0,0,0,0,0,0,4,8,12,8,4,4,8,25,16,11,25,21,12,15,23,32,32,37,32,27,32,28,23,23,32,31,36,31,32,31,31,32,32,31,48,47,52,49,27,31,27,24,12,12,20,33,32,23,16,4,12,8,4,3,12,8,8,12,3,12,8,4,4,8,8,18,13,4,4,4,0,4,8,4,0,0,4,8,8,9,0,9,8,21,24,23,23,28,23,28,27,31,31,23,19,23,28,20,16,12,16,15,23,23,20,20,23,28,28,23,19,24,20,15,15,20,23,28,27,32,28,16,9,8,12,8,4,0,0,0,0,4,4,8,4,4,3,9,4,0,9,17,12,9,4,4,3,21,8,8,12,22,9,0,0,0,0,0,0,0,4,12,12,4,0,4,8,12,12,8,4,0,0,4,3,4,0,4,8,12,12,8,4,4,8,12,12,9,0,0,4,8,3,8,12,4,3,7,8,8,8,4,0,4,8,9,0,4,8,12,8,8,3,8,11,15,16,16,12,12,16,24,20,20,23,23,20,15,16,16,12,11,16,16,20,20,15,20,23,32,31,36,36,31,31,32,23,20,20,28,28,28,27,27,27,28,28,20,15,15,15,15,16,16,12,12,16,15,16,12,12,12,12,16,20,28,31,31,31,31,35,44,43,43,43,43,43,43,43,43,43,43,44,35,31,31,31,31,31,32,32,44,43,39,40,32,19,19,15,16,25,32,36,36,32,28,20,16,12,12,12,16,15,20,16,17,4,4,0,4,4,9,8,12,3,3,4,4,8,8,3,4,0,4,12,12,16,24,23,32,32,27,36,31,31,35,52,60,59,59,59,60,51,47,44,32,19,23,28,28,23,20,16,12,4,4,8,3,8,12,12,7,17,12,4,4,12,32,36,32,15,12,8,4,0,0,4,3,4,4,12,24,32,36,31,35,39,43,39,35,44,43,39,40,32,15,12,12,8,4,4,8,4,4,4,4,4,8,12,8,4,0,0,4,-1,-1,-1,-1,-1,-1,-1,-1,-1,-1,-1,-1,-1,-1,-1,-1,-1,-1,-1,-1,-1,-1,-1,-1,-1,-1,-1,-1,-1,-1,-1,-1,-1,-1,-1,-1,-1,-1,-1,-1,-1,-1,-1,-1,-1,-1,-1,-1,-1,-1,-1
-1,-1,-1,-1,-1,-1,-1,-1,-1,-1,-1,-1,-1,-1,-1,-1,-1,-1,-1,-1,-1,-1,-1,-1,-1,-1,-1,-1,-1,-1,-1,-1,-1,-1,-1,-1,-1,8,7,8,8,7,7,7,8,4,4,4,8,0,8,12,12,4,0,4,8,12,12,12,12,4,0,0,0,4,8,8,4,0,0,4,8,4,4,0,13,3,8,26,20,20,19,20,20,32,36,31,28,20,20,24,20,20,28,31,31,27,28,32,23,23,27,40,49,48,48,44,31,27,28,20,16,20,19,20,21,14,3,4,4,8,16,12,8,13,12,16,11,12,4,4,12,16,24,24,16,12,8,3,12,7,12,8,0,8,12,7,8,4,4,3,3,16,24,28,23,23,23,28,28,28,28,23,20,20,20,20,23,32,23,23,23,28,20,20,23,28,24,15,20,20,15,15,15,20,23,28,28,20,16,17,4,12,12,8,4,0,4,8,12,0,12,7,12,4,3,16,12,8,13,0,4,4,0,17,20,16,11,16,16,12,8,4,0,0,0,0,0,4,8,8,4,0,0,4,8,12,12,4,0,0,0,0,0,0,0,0,0,4,8,8,4,4,4,8,8,4,0,4,8,8,4,4,8,4,9,0,0,0,0,0,0,4,8,4,0,0,4,8,12,12,12,12,12,12,8,7,12,8,17,12,16,20,16,16,15,15,20,15,20,20,15,20,20,15,20,28,27,32,27,32,31,35,40,35,40,36,36,31,31,31,32,31,31,27,23,20,15,15,16,16,16,15,15,15,15,15,16,11,16,15,15,15,20,24,28,27,31,36,35,44,43,43,43,43,39,40,39,43,43,39,35,31,31,31,31,31,36,32,36,35,35,35,36,27,28,19,28,36,35,40,40,31,27,19,15,20,24,24,15,16,16,16,20,12,4,4,12,12,25,15,16,12,12,8,3,8,12,12,0,8,16,16,15,20,23,23,32,31,35,49,39,48,56,58,62,62,62,63,55,48,36,29,20,16,16,20,20,16,12,17,7,7,3,8,7,12,16,16,3,16,20,12,21,32,36,32,20,16,12,3,8,12,12,12,12,12,21,20,23,36,44,39,35,31,35,39,39,39,43,44,32,20,15,16,12,12,4,4,8,4,4,8,4,4,4,8,12,4,0,0,4,-1,-1,-1,-1,-1,-1,-1,-1,-1,-1,-1,-1,-1,-1,-1,-1,-1,-1,-1,-1,-1,-1,-1,-1,-1,-1,-1,-1,-1,-1,-1,-1,-1,-1,-1,-1,-1,-1,-1,-1,-1,-1,-1,-1,-1,-1,-1,-1,-1,-1,-1
-1,-1,-1,-1,-1,-1,-1,-1,-1,-1,-1,-1,-1,-1,-1,-1,-1,-1,-1,-1,-1,-1,-1,-1,-1,-1,-1,-1,-1,-1,-1,-1,-1,-1,-1,-1,-1,8,13,9,0,4,8,3,8,7,12,4,4,4,12,16,16,12,12,12,12,12,12,12,8,4,0,0,0,4,12,12,4,0,0,0,4,4,4,0,9,0,9,18,20,28,32,28,15,20,23,27,23,28,23,19,28,23,23,31,39,40,27,23,36,45,36,32,32,32,35,35,32,23,23,20,20,20,16,12,9,3,18,4,7,20,28,19,25,12,12,11,12,4,4,8,3,7,16,21,16,11,3,4,8,17,12,12,4,4,8,12,16,3,4,13,4,7,20,23,28,20,24,24,20,15,20,24,20,20,24,23,27,27,27,23,28,23,23,20,15,16,16,16,20,20,15,15,15,15,15,15,15,20,11,12,4,12,16,16,16,12,16,16,7,4,4,14,4,3,3,17,12,4,8,12,7,21,17,12,16,16,12,12,4,4,12,12,12,12,12,8,4,0,4,8,12,8,0,8,8,4,4,8,4,0,0,0,0,0,0,4,3,0,4,9,4,0,4,8,4,0,0,0,4,8,8,4,4,8,4,4,0,0,4,3,4,4,12,8,4,0,0,4,3,8,3,3,8,12,12,12,12,12,9,0,4,4,8,12,16,20,24,15,16,16,15,20,20,15,15,20,23,23,23,23,27,31,39,43,43,43,35,31,31,27,23,28,28,28,23,20,15,15,16,16,16,15,15,20,23,23,20,15,15,15,16,11,16,16,15,23,28,28,28,28,27,31,31,31,31,35,39,39,35,31,31,31,31,31,31,31,36,36,40,44,31,27,31,31,27,32,31,31,36,19,20,23,27,32,32,28,28,23,20,12,12,15,28,28,24,29,28,27,32,23,20,11,8,12,12,7,8,9,12,23,36,28,24,23,36,35,40,44,47,60,54,63,58,63,60,56,52,53,44,31,20,12,12,7,12,8,4,0,4,8,4,9,18,8,7,7,12,16,16,35,47,58,57,43,36,24,16,12,3,8,12,12,12,16,15,20,32,27,32,36,39,44,35,31,27,36,40,35,31,32,20,12,12,12,4,4,4,8,8,4,4,4,4,4,0,0,4,4,0,0,4,-1,-1,-1,-1,-1,-1,-1,-1,-1,-1,-1,-1,-1,-1,-1,-1,-1,-1,-1,-1,-1,-1,-1,-1,-1,-1,-1,-1,-1,-1,-1,-1,-1,-1,-1,-1,-1,-1,-1,-1,-1,-1,-1,-1,-1,-1,-1,-1,-1,-1,-1
-1,-1,-1,-1,-1,-1,-1,-1,-1,-1,-1,-1,-1,-1,-1,-1,-1,-1,-1,-1,-1,-1,-1,-1,-1,-1,-1,-1,-1,-1,-1,-1,-1,-1,-1,-1,-1,12,7,8,3,8,3,8,3,12,8,4,4,0,4,9,12,12,12,8,4,0,0,0,0,4,8,12,8,9,4,4,4,0,0,0,4,12,7,12,12,12,17,12,16,23,37,27,20,20,24,28,27,31,31,32,27,27,32,31,44,44,35,44,43,47,39,27,23,32,31,31,27,23,23,24,16,16,15,24,29,20,34,25,20,23,33,24,19,20,11,12,3,0,4,8,3,8,4,4,8,12,4,4,0,4,3,4,4,8,0,17,16,16,17,4,4,12,16,16,20,16,12,12,16,15,15,20,20,20,28,23,19,23,23,23,19,23,23,28,23,20,20,16,16,16,15,15,15,15,15,15,20,16,12,8,4,4,12,17,7,12,11,17,4,4,12,11,12,17,16,29,33,24,25,16,20,20,15,16,8,4,0,4,9,8,8,8,12,12,12,12,4,0,4,12,12,12,8,13,9,0,4,8,8,4,0,0,0,0,0,0,9,4,12,12,4,0,4,4,0,0,0,0,0,4,4,0,9,8,12,8,4,4,8,12,4,4,8,12,8,4,4,3,4,4,8,8,4,9,3,4,4,4,9,4,9,8,7,7,12,12,21,12,12,16,15,20,20,15,15,15,20,24,19,23,23,27,36,36,40,36,36,31,27,23,23,23,27,27,23,24,20,15,20,24,20,15,15,20,28,28,23,20,15,16,12,12,16,16,20,20,20,20,19,19,23,27,31,35,39,43,43,43,43,39,35,35,35,35,35,35,40,31,32,37,27,36,27,27,32,31,31,31,27,32,32,36,40,40,35,31,27,28,23,29,28,27,31,31,35,44,43,39,31,28,15,12,8,8,8,12,4,25,32,39,43,48,53,48,56,51,55,63,67,67,67,58,56,45,37,24,15,20,25,25,15,16,12,12,7,12,4,4,8,12,16,24,24,16,12,16,29,32,48,64,67,68,56,39,27,15,12,3,8,8,3,8,12,12,12,20,27,32,31,40,35,35,36,31,36,32,32,31,32,24,16,16,12,7,12,3,8,8,4,0,4,8,4,4,0,0,4,4,0,0,4,-1,-1,-1,-1,-1,-1,-1,-1,-1,-1,-1,-1,-1,-1,-1,-1,-1,-1,-1,-1,-1,-1,-1,-1,-1,-1,-1,-1,-1,-1,-1,-1,-1,-1,-1,-1,-1,-1,-1,-1,-1,-1,-1,-1,-1,-1,-1,-1,-1,-1,-1
-1,-1,-1,-1,-1,-1,-1,-1,-1,-1,-1,-1,-1,-1,-1,-1,-1,-1,-1,-1,-1,-1,-1,-1,-1,-1,-1,-1,-1,-1,-1,-1,-1,-1,-1,-1,-1,4,4,0,4,8,7,8,0,8,4,4,8,4,4,8,8,4,0,0,0,0,0,0,0,4,12,12,12,12,4,8,4,0,0,0,4,8,13,12,25,15,16,8,8,12,21,25,15,25,24,27,27,28,32,31,31,36,40,31,36,36,35,39,48,39,35,31,32,27,27,28,23,19,24,20,7,8,15,32,32,28,32,23,16,17,13,8,12,7,12,17,12,12,17,7,12,4,0,4,3,3,12,12,4,4,13,4,4,8,0,9,8,21,16,3,4,4,7,16,16,16,20,20,15,15,15,20,20,20,19,19,24,19,24,20,20,24,19,23,28,19,24,20,24,24,20,15,15,15,15,15,16,16,12,3,4,0,9,4,8,12,8,9,4,4,3,12,12,12,16,28,36,32,23,15,12,12,8,4,0,0,0,4,4,4,4,0,0,0,0,4,12,12,12,4,0,4,12,16,16,12,8,3,8,12,8,4,0,0,0,4,3,0,13,8,8,4,4,4,0,0,0,0,0,0,4,0,0,4,8,7,12,12,8,8,8,4,0,4,8,4,4,12,8,4,9,9,8,8,4,4,8,12,8,0,8,12,3,8,3,8,3,12,16,15,15,20,16,12,12,12,16,20,20,20,23,28,28,20,20,28,23,28,23,23,19,28,28,28,28,23,23,20,20,23,28,28,28,28,20,20,23,23,20,16,16,16,11,16,16,16,16,15,15,20,23,23,27,31,40,40,35,36,36,40,31,31,40,31,31,41,27,23,20,24,28,32,27,28,27,36,39,43,39,48,43,43,39,40,36,31,31,31,35,40,35,31,35,39,43,39,40,41,28,20,16,12,8,4,4,17,24,36,39,48,48,51,63,71,71,63,63,62,67,59,61,49,32,11,7,12,7,12,4,4,8,12,12,8,0,8,3,12,16,24,23,28,19,20,24,40,52,51,51,65,52,44,31,28,25,12,7,12,8,3,8,12,8,3,16,32,35,44,44,48,44,35,36,35,44,35,36,27,29,20,16,11,12,17,8,3,8,7,12,12,12,4,4,4,0,4,8,4,0,0,-1,-1,-1,-1,-1,-1,-1,-1,-1,-1,-1,-1,-1,-1,-1,-1,-1,-1,-1,-1,-1,-1,-1,-1,-1,-1,-1,-1,-1,-1,-1,-1,-1,-1,-1,-1,-1,-1,-1,-1,-1,-1,-1,-1,-1,-1,-1,-1,-1,-1,-1,-1
-1,-1,-1,-1,-1,-1,-1,-1,-1,-1,-1,-1,-1,-1,-1,-1,-1,-1,-1,-1,-1,-1,-1,-1,-1,-1,-1,-1,-1,-1,-1,-1,-1,-1,-1,-1,-1,4,8,4,4,4,8,3,8,9,4,8,12,4,4,4,9,8,12,8,4,0,0,0,4,8,4,0,4,3,4,8,4,0,0,0,4,8,8,0,21,16,11,4,8,3,8,11,28,41,32,31,31,27,27,31,35,39,44,35,36,36,40,40,35,31,31,32,27,27,28,28,28,28,19,29,25,25,15,33,27,31,32,15,9,8,8,4,4,12,8,8,8,12,7,17,7,7,12,12,12,12,11,7,4,0,9,0,4,8,0,8,0,8,4,9,12,12,16,16,7,12,16,20,20,15,15,20,28,28,28,32,27,28,20,20,24,20,20,15,20,20,23,23,23,28,23,20,15,15,16,12,16,11,12,12,12,8,12,8,9,9,8,4,12,12,4,14,4,9,12,12,17,12,12,12,8,4,0,0,0,0,0,4,13,9,0,0,0,0,0,4,8,12,8,4,0,0,4,8,12,12,12,4,4,8,12,4,0,0,0,0,0,4,8,12,12,4,4,8,4,0,0,0,0,4,8,4,9,0,9,4,8,8,4,4,8,4,0,0,4,4,4,13,4,8,7,12,8,8,12,12,12,8,3,8,12,12,4,4,0,4,7,16,15,15,16,16,11,16,12,12,12,16,16,15,20,19,24,20,16,16,16,20,20,20,20,20,20,23,32,27,23,28,23,19,23,28,27,27,27,28,23,23,23,20,20,15,15,16,16,11,16,16,15,16,16,20,20,20,20,24,29,24,15,20,23,27,27,31,31,27,33,20,16,16,20,23,27,31,31,35,43,47,47,47,43,35,31,36,40,39,43,39,35,36,31,35,39,44,36,27,23,20,15,15,16,7,4,12,29,36,36,31,36,36,39,63,75,74,75,59,60,52,48,40,32,20,12,12,12,7,8,4,0,0,0,0,0,0,3,11,20,20,19,27,27,40,48,66,56,60,65,52,35,36,23,19,24,15,12,12,12,8,4,4,9,8,8,4,24,40,52,51,47,47,40,35,44,39,39,40,36,28,16,16,12,7,8,3,8,17,7,12,12,12,8,3,8,4,4,8,8,4,0,4,8,-1,-1,-1,-1,-1,-1,-1,-1,-1,-1,-1,-1,-1,-1,-1,-1,-1,-1,-1,-1,-1,-1,-1,-1,-1,-1,-1,-1,-1,-1,-1,-1,-1,-1,-1,-1,-1,-1,-1,-1,-1,-1,-1,-1,-1,-1,-1,-1,-1,-1,-1
-1,-1,-1,-1,-1,-1,-1,-1,-1,-1,-1,-1,-1,-1,-1,-1,-1,-1,-1,-1,-1,-1,-1,-1,-1,-1,-1,-1,-1,-1,-1,-1,-1,-1,-1,-1,-1,4,8,8,12,8,3,8,12,8,3,12,7,8,4,4,8,17,12,12,12,12,12,12,12,8,4,0,0,0,4,4,0,0,0,0,0,9,12,8,12,16,15,21,18,13,17,20,31,35,35,36,31,35,35,35,35,39,43,40,36,35,44,39,35,31,31,36,31,32,27,27,27,27,27,23,23,33,15,21,20,37,28,15,17,0,8,8,0,8,9,4,8,12,12,3,8,12,12,8,8,8,12,12,12,0,13,4,4,7,12,9,8,14,7,29,24,20,20,11,11,12,7,12,15,23,28,27,31,31,31,31,32,23,23,28,23,19,24,20,20,20,20,23,23,19,24,20,15,15,16,16,7,7,12,16,16,16,3,9,9,9,13,4,8,8,4,8,8,8,12,4,12,8,4,0,0,4,3,4,0,0,0,4,8,8,4,0,0,0,0,0,0,0,0,0,0,0,0,0,4,3,3,8,4,0,4,8,4,0,0,0,0,0,4,8,12,4,4,4,0,0,0,0,0,4,8,4,7,4,8,8,4,0,0,0,4,4,0,0,4,9,7,16,11,13,4,3,4,4,8,8,4,4,8,12,12,8,4,4,8,13,8,12,12,12,12,7,12,11,12,7,7,12,16,15,15,15,20,20,16,16,16,16,16,16,20,20,20,28,28,23,23,23,28,23,20,20,23,28,28,28,28,23,23,20,20,15,16,12,12,11,16,16,15,16,12,3,8,3,8,7,12,12,16,20,23,28,28,27,31,39,44,32,15,16,15,28,31,31,27,27,36,40,35,40,40,31,31,35,44,43,44,40,28,23,27,31,36,32,28,28,23,20,15,16,12,0,16,28,44,43,48,44,44,52,69,71,72,69,61,39,36,27,28,28,20,12,7,8,4,4,8,4,4,3,4,0,4,8,16,20,23,28,32,31,48,60,59,63,64,43,45,28,23,20,15,16,16,12,16,16,12,12,8,4,8,9,18,25,37,40,52,43,43,43,43,43,39,44,35,31,23,20,16,21,11,12,8,3,12,11,12,7,8,8,8,16,11,12,12,8,4,0,4,8,-1,-1,-1,-1,-1,-1,-1,-1,-1,-1,-1,-1,-1,-1,-1,-1,-1,-1,-1,-1,-1,-1,-1,-1,-1,-1,-1,-1,-1,-1,-1,-1,-1,-1,-1,-1,-1,-1,-1,-1,-1,-1,-1,-1,-1,-1,-1,-1,-1,-1,-1,-1
-1,-1,-1,-1,-1,-1,-1,-1,-1,-1,-1,-1,-1,-1,-1,-1,-1,-1,-1,-1,-1,-1,-1,-1,-1,-1,-1,-1,-1,-1,-1,-1,-1,-1,-1,-1,-1,0,4,17,16,16,16,11,12,12,12,3,8,8,4,4,0,4,0,4,8,12,12,12,8,4,0,0,0,0,4,8,4,0,0,0,4,8,12,12,8,17,20,23,32,33,19,23,27,31,36,36,31,31,40,31,35,44,43,44,35,35,39,35,31,31,35,40,35,40,31,36,36,31,31,32,28,24,12,8,8,21,16,15,20,16,16,17,8,0,8,0,12,12,8,4,9,8,4,0,0,0,4,8,8,0,3,4,4,17,25,17,13,3,15,27,28,15,21,16,20,16,16,20,23,31,35,39,35,27,28,23,19,23,28,23,23,28,23,20,20,20,15,20,20,15,20,20,15,15,20,16,12,7,7,12,12,8,0,12,16,12,8,4,4,4,8,4,9,8,12,0,8,12,4,0,0,0,9,0,0,0,0,0,0,0,0,0,0,0,0,0,0,0,0,0,0,0,0,4,8,12,7,7,8,4,4,8,8,4,0,0,0,4,8,12,7,8,8,8,4,0,0,0,0,4,9,8,12,0,8,12,12,12,8,8,8,4,0,0,4,9,12,12,13,3,4,0,0,0,0,0,4,8,8,4,0,0,0,4,12,12,3,0,0,0,4,8,3,8,12,12,12,12,16,15,16,12,16,16,20,20,15,20,20,20,24,20,20,20,20,23,23,23,19,23,28,32,27,27,23,20,20,24,20,15,20,16,12,7,7,16,11,16,16,12,8,4,4,4,4,8,12,16,15,15,20,20,15,20,28,45,40,36,27,32,27,31,31,27,23,29,28,27,27,27,27,31,31,35,35,35,31,23,24,28,27,27,23,19,23,23,20,15,15,16,4,7,24,31,43,51,64,67,72,67,67,65,40,32,32,23,28,23,20,20,16,16,11,16,12,12,4,0,0,9,0,4,8,12,16,20,23,36,44,43,47,60,48,40,41,23,20,16,16,12,12,8,4,4,12,12,12,12,12,12,12,20,41,44,49,35,40,40,40,44,43,39,39,35,31,32,28,20,16,11,16,16,12,12,3,8,7,12,12,16,16,16,16,12,8,4,0,0,4,8,-1,-1,-1,-1,-1,-1,-1,-1,-1,-1,-1,-1,-1,-1,-1,-1,-1,-1,-1,-1,-1,-1,-1,-1,-1,-1,-1,-1,-1,-1,-1,-1,-1,-1,-1,-1,-1,-1,-1,-1,-1,-1,-1,-1,-1,-1,-1,-1,-1,-1,-1,-1
-1,-1,-1,-1,-1,-1,-1,-1,-1,-1,-1,-1,-1,-1,-1,-1,-1,-1,-1,-1,-1,-1,-1,-1,-1,-1,-1,-1,-1,-1,-1,-1,-1,-1,-1,-1,-1,4,4,12,16,16,11,16,12,12,8,3,8,4,0,4,0,4,0,0,0,0,0,0,0,0,0,0,0,0,4,8,4,0,0,0,0,0,0,4,0,8,16,23,36,31,32,28,19,27,40,39,39,36,27,36,40,35,36,31,32,31,40,31,31,27,27,36,39,39,35,36,36,32,31,31,23,7,8,16,16,21,13,12,16,20,28,28,15,12,12,0,12,8,4,4,8,12,8,4,0,0,0,4,8,8,0,8,4,21,26,3,11,16,16,24,23,24,11,12,20,23,32,28,28,32,35,48,44,32,20,15,20,24,20,20,28,23,20,20,20,20,15,16,16,11,16,16,15,16,16,11,12,7,8,4,0,4,8,7,12,7,8,13,3,8,8,7,17,8,9,0,4,8,4,0,0,3,12,7,4,0,0,0,0,0,0,0,0,0,0,4,8,8,4,0,0,0,0,4,8,9,4,4,8,8,4,4,8,4,0,0,4,8,8,4,0,9,4,4,0,0,0,0,0,4,12,8,9,4,8,8,8,12,12,12,8,4,0,0,4,13,4,4,8,4,0,0,0,0,4,8,12,8,4,0,0,0,0,0,4,8,8,4,0,0,0,4,12,12,16,16,12,12,12,12,12,12,12,16,20,24,20,20,20,20,24,20,16,16,19,23,19,23,23,19,23,27,32,28,28,20,16,16,16,15,20,16,12,7,12,7,7,7,12,12,12,12,4,4,0,4,12,12,16,16,12,12,12,16,16,20,28,36,35,40,31,27,28,19,23,41,27,28,28,27,31,35,39,43,39,31,32,31,40,36,27,28,28,20,15,15,15,16,12,17,0,12,28,31,43,51,63,76,67,63,56,40,36,28,20,20,20,24,15,16,16,11,16,11,12,8,4,4,8,8,4,12,16,24,32,36,39,43,39,43,40,36,23,20,20,16,12,12,12,12,12,12,12,12,3,8,12,12,12,16,29,36,47,47,52,39,35,35,44,35,35,43,43,39,31,19,20,15,15,16,16,12,12,11,16,12,11,12,12,16,16,8,4,0,0,0,0,0,4,4,0,-1,-1,-1,-1,-1,-1,-1,-1,-1,-1,-1,-1,-1,-1,-1,-1,-1,-1,-1,-1,-1,-1,-1,-1,-1,-1,-1,-1,-1,-1,-1,-1,-1,-1,-1,-1,-1,-1,-1,-1,-1,-1,-1,-1,-1,-1,-1,-1,-1,-1,-1
-1,-1,-1,-1,-1,-1,-1,-1,-1,-1,-1,-1,-1,-1,-1,-1,-1,-1,-1,-1,-1,-1,-1,-1,-1,-1,-1,-1,-1,-1,-1,-1,-1,-1,-1,-1,12,4,4,12,12,7,8,4,0,0,0,4,4,0,0,4,4,8,4,0,0,0,4,8,12,12,8,4,0,0,4,8,4,0,0,0,0,0,4,8,4,4,17,25,23,27,23,19,28,27,36,45,44,35,35,39,39,35,31,32,32,27,27,27,27,28,28,32,36,39,43,44,32,28,27,27,24,21,14,25,23,23,20,8,8,16,24,20,16,12,12,4,8,12,8,4,0,4,8,4,0,0,0,4,12,12,8,9,3,21,12,4,9,8,4,21,25,25,12,3,16,28,27,23,20,20,23,42,33,23,23,20,20,20,23,28,20,15,20,24,19,24,20,20,20,16,16,16,16,12,7,12,11,12,7,8,4,4,9,9,9,8,3,8,17,17,12,16,16,3,4,0,0,4,4,0,0,4,12,16,8,0,0,0,0,0,0,0,0,0,0,0,9,9,0,0,0,0,0,4,12,12,8,4,4,8,8,4,4,4,0,0,4,8,4,0,4,3,8,8,4,0,0,0,0,4,3,4,4,0,4,0,0,0,4,4,8,8,4,0,4,4,8,12,4,0,0,0,0,0,4,12,8,4,4,8,8,8,8,12,12,12,9,0,4,3,4,4,8,12,12,12,12,8,4,0,4,7,16,15,20,23,23,20,20,16,16,16,16,16,20,20,20,20,24,24,23,23,20,16,16,16,16,16,16,15,20,20,16,16,16,16,12,8,8,11,15,16,7,9,0,0,4,8,12,12,8,4,4,8,12,7,16,20,37,27,28,20,20,28,32,31,32,23,27,31,35,39,43,43,44,31,32,36,31,27,23,20,20,24,20,15,16,12,8,9,8,16,19,27,36,43,52,57,47,52,43,39,39,31,27,28,15,16,8,4,4,4,4,4,0,0,4,8,13,16,37,45,44,48,43,44,44,40,35,31,28,20,15,16,16,12,8,4,4,8,12,12,16,12,12,16,15,15,15,24,45,43,47,47,47,43,35,39,39,35,39,39,48,44,27,15,16,16,16,12,3,8,16,16,20,16,16,16,12,8,4,0,0,0,0,0,0,0,4,9,-1,-1,-1,-1,-1,-1,-1,-1,-1,-1,-1,-1,-1,-1,-1,-1,-1,-1,-1,-1,-1,-1,-1,-1,-1,-1,-1,-1,-1,-1,-1,-1,-1,-1,-1,-1,-1,-1,-1,-1,-1,-1,-1,-1,-1,-1,-1,-1,-1,-1,-1,-1
-1,-1,-1,-1,-1,-1,-1,-1,-1,-1,-1,-1,-1,-1,-1,-1,-1,-1,-1,-1,-1,-1,-1,-1,-1,-1,-1,-1,-1,-1,-1,-1,-1,-1,-1,-1,9,9,8,8,8,8,4,4,8,12,12,12,4,0,0,4,4,8,4,0,0,4,8,12,12,12,12,4,0,4,8,8,4,0,0,0,0,4,8,8,4,0,4,12,28,31,31,36,40,40,27,19,32,31,35,40,35,35,39,48,44,35,31,27,32,35,36,27,32,44,47,43,39,36,32,32,32,23,20,13,21,20,16,12,0,8,16,16,16,12,12,12,12,12,9,0,0,0,4,4,0,0,0,4,12,17,21,17,21,29,16,4,8,13,8,17,4,8,0,17,16,20,24,20,20,20,7,13,4,16,23,23,24,20,28,23,20,20,23,23,23,23,20,20,24,19,24,15,12,7,7,12,16,16,12,7,12,12,7,8,4,4,12,12,8,8,12,13,9,8,12,4,4,8,12,8,4,4,4,14,4,0,4,8,12,8,4,0,0,0,0,4,8,8,4,0,0,0,0,4,8,8,4,0,0,4,8,4,4,4,0,0,4,4,3,4,0,0,4,8,4,0,0,0,0,0,0,0,4,0,4,0,0,0,0,4,13,9,4,8,12,16,16,7,4,0,0,0,0,4,8,4,0,0,4,12,12,12,12,12,12,12,12,3,4,12,8,4,0,0,0,0,0,0,0,0,4,8,12,12,12,16,20,20,16,12,12,16,15,20,11,16,20,15,20,24,24,20,15,16,16,16,20,16,16,16,20,20,15,16,12,17,7,7,12,12,16,16,12,12,4,0,4,9,12,12,8,4,4,4,8,13,12,8,9,16,20,24,19,23,27,28,20,25,24,28,31,36,32,28,32,28,23,29,20,24,20,15,20,20,15,16,12,7,8,17,16,20,15,15,25,25,25,24,32,36,41,40,36,31,31,31,23,12,4,0,0,4,3,12,7,8,8,30,50,39,47,47,56,43,36,32,19,28,27,24,16,12,16,11,3,0,0,4,8,8,8,8,12,20,20,20,23,32,40,57,60,51,43,43,43,43,43,43,39,40,39,39,36,32,23,24,20,16,12,7,12,12,7,17,7,12,7,12,4,0,0,0,0,0,0,0,4,8,8,8,-1,-1,-1,-1,-1,-1,-1,-1,-1,-1,-1,-1,-1,-1,-1,-1,-1,-1,-1,-1,-1,-1,-1,-1,-1,-1,-1,-1,-1,-1,-1,-1,-1,-1,-1,-1,-1,-1,-1,-1,-1,-1,-1,-1,-1,-1,-1,-1,-1,-1,-1,-1
-1,-1,-1,-1,-1,-1,-1,-1,-1,-1,-1,-1,-1,-1,-1,-1,-1,-1,-1,-1,-1,-1,-1,-1,-1,-1,-1,-1,-1,-1,-1,-1,-1,-1,-1,-1,4,12,7,8,4,4,8,12,12,12,12,8,4,0,0,4,4,4,12,8,4,4,8,4,0,0,4,4,4,8,8,4,0,0,0,0,0,0,4,4,4,8,12,15,23,32,32,32,44,44,35,40,31,36,31,32,31,31,45,39,39,35,31,32,36,44,43,43,44,40,40,35,39,43,44,40,40,27,24,16,17,12,12,3,0,0,4,13,11,16,11,11,12,12,8,4,0,4,8,4,0,4,8,8,8,15,23,28,19,29,25,4,3,4,13,26,16,8,4,16,29,20,20,24,20,25,12,8,12,20,23,23,28,15,16,15,23,28,23,19,24,20,20,20,20,20,20,16,16,11,16,11,16,12,11,16,11,7,4,0,4,3,11,11,3,4,4,8,12,20,16,12,8,7,20,20,16,4,12,16,8,4,8,12,16,12,4,0,0,0,0,0,0,0,0,0,0,0,0,0,0,0,0,0,0,0,4,4,4,12,8,4,4,4,13,8,8,12,12,12,4,0,0,0,0,4,8,12,12,0,8,4,0,0,0,4,12,8,3,12,12,11,16,8,4,0,0,0,4,8,8,4,0,0,4,4,4,3,4,0,0,4,13,4,4,9,8,8,4,0,0,0,0,0,0,0,4,8,4,0,0,0,4,12,7,12,11,16,12,12,16,16,16,15,20,29,20,16,12,17,12,16,20,16,16,16,16,16,16,16,16,7,12,12,7,7,12,12,12,16,16,12,3,8,12,12,12,8,4,4,12,8,9,14,0,4,12,20,15,20,24,20,16,12,12,12,20,20,15,15,20,11,12,7,16,24,20,16,12,12,11,12,7,8,12,16,16,16,20,20,16,12,12,16,20,15,20,20,25,25,24,29,25,12,4,0,4,9,8,17,12,29,36,56,51,52,40,36,33,24,15,16,16,20,20,12,12,12,12,12,4,0,0,0,9,12,16,16,20,28,36,40,39,48,47,55,55,48,35,35,43,47,47,43,39,44,35,40,32,24,23,28,23,20,12,12,8,4,4,4,8,4,9,13,4,0,0,0,0,0,0,0,4,12,8,4,-1,-1,-1,-1,-1,-1,-1,-1,-1,-1,-1,-1,-1,-1,-1,-1,-1,-1,-1,-1,-1,-1,-1,-1,-1,-1,-1,-1,-1,-1,-1,-1,-1,-1,-1,-1,-1,-1,-1,-1,-1,-1,-1,-1,-1,-1,-1,-1,-1,-1,-1,-1
-1,-1,-1,-1,-1,-1,-1,-1,-1,-1,-1,-1,-1,-1,-1,-1,-1,-1,-1,-1,-1,-1,-1,-1,-1,-1,-1,-1,-1,-1,-1,-1,-1,-1,-1,-1,-1,12,12,7,8,3,12,8,4,0,0,0,0,0,4,8,4,4,8,12,8,4,4,0,0,0,4,4,8,8,4,0,0,0,0,0,0,4,8,4,4,12,12,16,16,16,16,25,32,36,35,39,49,31,23,19,28,23,23,27,31,27,32,31,31,36,40,43,39,36,27,36,35,43,39,40,40,35,36,28,24,21,18,8,12,8,4,4,8,9,9,9,8,12,12,12,12,12,8,4,4,8,12,13,12,20,20,20,20,12,13,4,9,9,7,16,12,7,8,9,18,12,16,24,16,12,16,19,24,23,28,23,23,15,16,16,24,24,19,24,19,23,28,20,20,16,16,16,16,16,11,12,7,12,12,11,12,12,12,4,4,4,12,12,8,9,4,0,4,17,16,16,12,9,9,23,8,4,8,8,4,4,8,7,12,7,12,4,0,0,0,0,0,0,0,0,0,0,0,0,0,0,0,0,0,0,4,8,3,8,12,4,4,4,13,4,12,12,16,7,4,8,8,4,0,4,12,12,8,0,8,4,0,0,0,3,12,7,9,4,4,8,9,4,0,0,0,0,0,4,4,0,0,0,4,8,4,0,0,0,0,4,13,4,8,4,4,4,0,0,0,0,0,0,0,0,4,8,4,0,0,0,0,4,12,11,12,7,12,17,12,12,16,15,20,19,20,16,16,7,21,16,16,12,16,20,16,16,16,15,16,16,11,12,12,8,4,3,11,20,24,15,16,8,4,0,4,8,7,12,4,3,16,16,3,4,8,12,4,7,20,19,20,15,16,16,7,12,12,12,17,12,12,12,7,17,7,12,3,8,12,3,9,12,16,20,24,28,28,28,28,28,28,19,16,16,13,13,8,4,0,13,12,8,4,0,8,29,32,36,49,57,51,51,43,32,15,12,3,12,7,7,7,12,8,8,12,8,8,12,4,0,4,12,21,24,41,36,36,40,39,43,48,47,47,47,43,39,48,44,35,44,43,43,43,47,39,32,23,23,23,23,20,16,8,4,4,8,12,4,4,4,8,8,4,0,0,0,0,0,0,0,4,4,4,12,-1,-1,-1,-1,-1,-1,-1,-1,-1,-1,-1,-1,-1,-1,-1,-1,-1,-1,-1,-1,-1,-1,-1,-1,-1,-1,-1,-1,-1,-1,-1,-1,-1,-1,-1,-1,-1,-1,-1,-1,-1,-1,-1,-1,-1,-1,-1,-1,-1,-1,-1,-1
-1,-1,-1,-1,-1,-1,-1,-1,-1,-1,-1,-1,-1,-1,-1,-1,-1,-1,-1,-1,-1,-1,-1,-1,-1,-1,-1,-1,-1,-1,-1,-1,-1,-1,-1,-1,-1,40,41,41,41,45,37,33,29,20,16,12,12,12,12,8,4,0,0,4,4,4,4,0,0,0,4,4,4,4,0,0,0,0,0,0,0,4,8,4,0,4,4,12,12,7,12,21,20,33,27,27,40,40,45,41,27,28,32,31,31,32,27,36,40,40,31,31,31,36,31,36,31,40,43,43,35,35,35,40,27,28,25,16,16,16,12,8,4,13,9,4,4,9,12,12,12,4,4,4,8,8,4,9,12,25,12,13,8,13,0,12,12,0,16,12,13,12,20,28,41,33,12,17,11,16,15,28,28,23,24,23,28,28,28,15,16,15,23,23,23,28,23,19,24,20,16,16,11,16,11,12,12,16,20,16,12,7,8,8,8,4,4,4,8,9,4,4,8,9,9,12,3,8,16,15,12,4,0,0,4,8,4,9,13,9,8,8,3,4,0,0,0,0,0,4,8,8,4,0,0,0,0,0,0,0,4,8,4,4,8,4,4,12,12,8,8,0,13,4,4,12,12,8,4,4,8,4,0,0,4,4,0,0,4,8,12,12,8,4,4,9,8,8,4,0,0,0,4,8,4,0,0,0,4,8,4,0,0,0,0,4,3,4,8,4,8,8,4,0,0,0,0,0,0,0,4,8,12,8,4,0,0,4,8,12,3,12,16,20,12,7,12,16,15,16,12,16,11,16,16,16,7,16,11,16,16,20,20,15,16,12,12,12,8,4,4,8,12,16,20,12,8,8,4,0,0,4,13,4,12,12,17,8,0,12,16,12,9,12,17,21,12,12,12,7,12,4,0,0,9,8,12,12,8,3,8,4,4,4,12,7,21,16,20,32,35,35,27,23,23,28,28,29,7,21,24,32,23,29,24,24,16,16,20,37,62,61,47,48,52,48,45,37,25,12,8,4,4,8,0,8,0,8,4,4,8,12,12,8,4,12,29,40,52,60,59,51,47,43,39,39,47,55,59,55,47,43,43,39,35,36,31,35,43,47,39,27,27,32,32,28,15,12,12,12,12,12,8,0,8,4,0,0,0,0,0,4,8,12,12,8,4,8,4,3,-1,-1,-1,-1,-1,-1,-1,-1,-1,-1,-1,-1,-1,-1,-1,-1,-1,-1,-1,-1,-1,-1,-1,-1,-1,-1,-1,-1,-1,-1,-1,-1,-1,-1,-1,-1,-1,-1,-1,-1,-1,-1,-1,-1,-1,-1,-1,-1,-1,-1,-1,-1
-1,-1,-1,-1,-1,-1,-1,-1,-1,-1,-1,-1,-1,-1,-1,-1,-1,-1,-1,-1,-1,-1,-1,-1,-1,-1,-1,-1,-1,-1,-1,-1,-1,-1,-1,-1,-1,59,63,68,63,58,59,55,56,43,40,28,20,15,16,12,12,12,12,12,7,8,4,0,0,0,4,4,8,4,0,0,4,3,4,0,0,4,8,4,0,4,4,8,4,12,12,8,3,21,24,28,37,41,36,36,36,31,36,36,35,40,35,35,44,39,35,31,31,35,39,44,36,31,40,53,39,44,35,35,32,23,20,8,12,17,8,4,4,4,9,4,4,12,12,8,4,9,4,8,8,4,4,17,8,8,8,9,4,9,0,4,13,4,17,12,17,3,16,28,36,32,20,17,12,16,15,24,23,23,23,23,27,27,23,20,20,20,24,20,20,20,15,16,16,12,11,12,12,11,16,11,16,16,20,16,12,8,4,12,8,3,8,4,4,13,4,4,8,4,8,4,0,4,0,9,9,12,12,12,12,8,4,4,12,8,4,9,13,4,0,0,0,0,0,8,16,16,8,0,0,0,0,4,8,12,12,12,4,4,8,4,4,8,12,3,8,12,25,12,12,4,4,8,8,3,8,8,4,0,4,4,0,4,8,8,4,9,4,8,3,12,8,4,0,0,0,0,0,4,8,4,0,0,0,4,8,4,0,0,0,0,0,4,12,12,8,4,0,0,0,4,8,12,8,4,0,4,8,12,8,4,4,8,12,12,4,4,12,11,12,8,8,12,12,12,12,7,7,12,12,8,12,11,12,7,12,11,16,16,15,16,12,12,8,4,4,8,7,7,7,8,4,4,4,0,0,4,12,12,12,8,13,12,7,7,17,4,11,11,4,3,4,0,4,12,7,12,8,4,4,8,12,16,11,12,7,7,8,8,16,20,33,28,32,36,44,31,28,20,15,15,16,21,4,15,32,27,32,31,31,27,41,40,61,59,63,61,36,28,28,15,12,4,0,9,0,0,4,8,4,4,4,8,12,12,12,8,4,8,21,23,40,47,63,66,72,50,51,47,52,47,55,60,56,56,47,47,43,48,44,35,35,43,47,43,35,36,31,32,23,25,12,12,12,12,8,4,0,0,4,4,0,0,0,4,8,12,12,12,12,12,4,8,4,0,-1,-1,-1,-1,-1,-1,-1,-1,-1,-1,-1,-1,-1,-1,-1,-1,-1,-1,-1,-1,-1,-1,-1,-1,-1,-1,-1,-1,-1,-1,-1,-1,-1,-1,-1,-1,-1,-1,-1,-1,-1,-1,-1,-1,-1,-1,-1,-1,-1,-1,-1,-1
-1,-1,-1,-1,-1,-1,-1,-1,-1,-1,-1,-1,-1,-1,-1,-1,-1,-1,-1,-1,-1,-1,-1,-1,-1,-1,-1,-1,-1,-1,-1,-1,-1,-1,-1,-1,-1,62,62,67,58,67,63,63,58,59,55,48,40,32,28,28,28,23,20,20,20,20,20,25,20,16,7,12,4,4,0,0,0,9,0,0,0,4,4,8,12,17,12,11,16,12,4,4,4,9,17,16,21,20,28,28,27,31,40,35,36,36,31,31,32,31,35,35,31,35,43,47,52,48,31,31,43,51,52,43,49,36,29,12,8,17,12,12,12,8,8,4,8,8,8,12,4,3,3,8,4,4,16,24,15,11,16,16,12,9,4,12,12,4,4,8,12,4,4,12,12,3,12,16,17,4,16,20,23,28,28,20,25,15,15,15,20,16,16,11,12,12,12,8,3,8,12,11,12,7,7,12,11,12,7,12,12,12,8,3,4,4,8,8,4,3,4,4,8,9,4,4,0,4,4,8,12,16,15,16,7,4,0,9,0,0,4,9,9,4,0,0,0,0,0,4,22,22,4,4,8,12,8,4,9,12,16,7,4,4,12,12,8,4,4,4,4,12,16,16,8,3,3,3,8,8,3,8,8,4,4,4,0,0,4,4,9,0,9,13,4,7,3,0,0,0,0,0,4,8,9,0,0,0,0,4,8,4,0,0,0,0,0,4,8,8,4,0,0,0,0,0,9,12,12,8,4,0,0,4,8,12,8,8,12,7,7,8,4,8,3,12,8,4,0,4,4,9,4,8,12,4,4,8,7,7,12,11,16,16,15,16,11,16,12,12,17,7,7,7,12,9,0,4,4,0,4,8,8,4,0,0,4,13,9,8,21,16,12,12,4,4,8,12,12,7,17,12,12,8,3,8,8,8,17,8,3,12,8,4,12,16,15,28,31,31,36,27,19,20,15,15,16,12,12,16,20,20,20,20,28,40,48,52,57,53,41,24,16,12,17,8,4,0,4,3,4,8,8,3,8,17,12,7,7,7,8,4,20,32,49,43,52,47,64,65,56,47,51,51,56,51,52,44,31,35,39,47,51,47,39,35,48,51,52,35,31,31,36,24,16,16,12,8,4,0,0,0,0,0,4,4,8,8,8,8,12,8,4,3,4,4,4,4,4,0,-1,-1,-1,-1,-1,-1,-1,-1,-1,-1,-1,-1,-1,-1,-1,-1,-1,-1,-1,-1,-1,-1,-1,-1,-1,-1,-1,-1,-1,-1,-1,-1,-1,-1,-1,-1,-1,-1,-1,-1,-1,-1,-1,-1,-1,-1,-1,-1,-1,-1,-1,-1
-1,-1,-1,-1,-1,-1,-1,-1,-1,-1,-1,-1,-1,-1,-1,-1,-1,-1,-1,-1,-1,-1,-1,-1,-1,-1,-1,-1,-1,-1,-1,-1,-1,-1,-1,-1,-1,56,52,44,39,57,56,51,56,56,56,47,47,48,43,39,35,31,28,24,23,27,31,39,39,45,31,32,24,25,16,12,7,12,7,12,16,21,16,16,15,24,28,31,41,28,12,4,4,12,12,0,7,20,23,23,27,31,40,35,31,32,31,31,32,31,40,31,31,31,35,43,55,55,47,48,50,67,72,51,39,36,32,16,8,16,16,12,8,8,16,11,11,11,16,12,4,0,4,4,0,8,16,24,20,16,16,12,8,8,8,13,4,3,12,16,29,21,8,4,4,8,8,11,16,12,9,17,21,16,16,16,11,16,15,15,16,12,7,12,11,12,12,12,16,11,12,12,8,3,8,3,8,3,12,8,8,8,12,4,0,4,4,8,12,12,8,4,8,12,4,4,0,4,0,8,20,19,16,8,0,0,4,3,4,0,4,4,4,4,4,8,12,8,4,8,16,16,8,4,12,12,8,8,13,12,16,12,4,4,8,12,12,8,3,8,18,8,8,4,4,8,12,8,3,8,4,4,8,4,4,4,4,4,9,4,3,8,8,8,4,13,4,0,0,0,0,0,0,9,8,4,0,0,0,0,4,8,4,0,0,4,3,4,0,0,0,0,0,0,0,4,4,0,4,8,12,8,4,0,4,8,8,9,0,4,12,12,12,12,0,4,4,4,4,8,12,8,4,0,4,8,4,4,8,4,4,13,8,16,16,16,16,12,12,16,16,12,3,8,4,4,4,4,4,4,8,7,12,12,12,7,12,20,20,24,19,16,3,4,4,8,12,12,7,8,4,0,4,8,4,4,0,4,4,0,4,8,4,8,4,4,21,19,23,23,24,28,23,20,11,16,16,18,3,16,16,16,16,29,27,35,36,28,20,16,16,12,8,0,12,12,12,12,12,12,12,12,12,12,15,24,15,12,4,4,21,29,31,43,51,50,60,47,48,40,35,43,47,47,47,44,32,27,31,35,39,39,48,39,43,48,47,57,49,31,31,23,20,16,16,12,7,12,12,12,12,8,4,4,8,3,12,12,12,8,4,0,0,9,0,4,12,12,3,3,-1,-1,-1,-1,-1,-1,-1,-1,-1,-1,-1,-1,-1,-1,-1,-1,-1,-1,-1,-1,-1,-1,-1,-1,-1,-1,-1,-1,-1,-1,-1,-1,-1,-1,-1,-1,-1,-1,-1,-1,-1,-1,-1,-1,-1,-1,-1,-1,-1,-1,-1,-1
-1,-1,-1,-1,-1,-1,-1,-1,-1,-1,-1,-1,-1,-1,-1,-1,-1,-1,-1,-1,-1,-1,-1,-1,-1,-1,-1,-1,-1,-1,-1,-1,-1,-1,-1,-1,27,18,22,9,9,18,26,34,29,28,32,36,40,43,43,44,31,32,20,20,20,23,36,43,52,47,48,39,35,36,40,40,36,41,28,32,36,31,28,20,20,28,27,49,47,47,36,21,3,12,7,0,12,20,28,36,36,31,36,27,32,31,31,31,31,27,28,27,31,31,35,39,47,56,47,43,47,78,67,59,48,36,36,28,25,13,13,12,20,15,20,20,12,16,11,7,4,0,4,4,3,9,12,16,13,17,21,16,8,4,12,8,0,12,7,16,19,23,25,12,12,11,21,16,11,8,3,0,8,12,12,16,15,15,15,15,16,12,7,7,12,12,16,15,16,16,11,12,12,12,4,4,4,4,8,4,4,12,16,12,8,12,12,7,7,12,12,4,4,3,3,8,0,12,12,16,21,27,13,8,4,0,0,0,0,0,4,8,12,4,4,12,12,12,4,0,0,0,0,4,9,8,8,9,4,9,18,4,0,0,0,0,4,8,3,12,16,16,12,12,12,8,8,8,4,4,4,8,12,4,4,4,4,12,8,8,12,12,8,8,4,9,4,3,4,0,0,0,4,8,4,0,0,0,0,0,4,8,12,12,12,12,12,4,0,0,0,0,0,0,4,8,8,4,0,4,8,12,4,0,0,0,4,3,3,8,4,4,8,8,3,8,12,4,4,8,12,20,20,12,4,8,4,0,4,4,12,8,4,3,12,17,12,12,11,12,7,7,17,7,7,8,0,8,4,4,8,12,16,15,15,15,24,32,36,32,20,12,8,3,8,8,3,8,12,8,3,8,8,4,4,12,12,7,12,4,4,8,12,17,12,25,33,28,20,15,20,28,23,20,16,12,9,26,16,12,20,24,23,27,27,28,15,12,12,12,3,3,4,4,8,12,16,12,12,12,8,4,4,8,16,21,12,8,12,24,36,44,43,43,47,51,54,47,40,36,31,40,39,39,39,35,40,44,43,43,39,39,35,48,60,59,43,36,28,23,28,15,16,16,16,12,4,4,8,12,12,12,12,12,8,4,4,4,3,4,0,0,4,3,4,4,8,7,7,12,-1,-1,-1,-1,-1,-1,-1,-1,-1,-1,-1,-1,-1,-1,-1,-1,-1,-1,-1,-1,-1,-1,-1,-1,-1,-1,-1,-1,-1,-1,-1,-1,-1,-1,-1,-1,-1,-1,-1,-1,-1,-1,-1,-1,-1,-1,-1,-1,-1,-1,-1,-1
-1,-1,-1,-1,-1,-1,-1,-1,-1,-1,-1,-1,-1,-1,-1,-1,-1,-1,-1,-1,-1,-1,-1,-1,-1,-1,-1,-1,-1,-1,-1,-1,-1,-1,-1,-1,72,77,78,56,56,74,78,75,50,38,21,9,12,33,28,29,20,16,20,25,15,15,25,29,38,33,37,36,35,43,47,47,51,52,43,48,43,39,36,32,36,36,28,33,37,50,38,12,4,13,0,4,7,20,31,40,31,27,32,28,27,31,31,31,31,27,28,32,31,31,35,40,35,48,43,48,36,45,53,55,60,61,48,31,23,20,16,16,20,20,16,17,4,4,4,4,3,0,8,4,9,13,13,4,16,24,28,19,11,12,21,12,8,8,9,4,7,20,19,20,12,16,16,17,9,3,4,4,13,12,12,16,15,15,15,15,15,16,12,7,7,12,12,16,16,16,16,15,15,11,3,4,4,4,4,4,8,7,12,8,8,8,12,12,12,8,3,8,4,4,8,8,4,11,15,12,8,16,17,9,0,0,0,0,4,3,4,13,8,4,4,12,12,17,8,4,0,0,0,4,9,8,8,8,13,12,16,12,8,8,4,0,0,4,12,12,12,3,4,8,8,4,8,12,4,4,8,13,9,8,3,8,3,13,4,4,12,12,12,12,8,4,4,9,0,0,0,0,0,4,4,0,0,0,0,0,0,4,8,12,12,8,9,4,0,0,0,0,0,0,4,8,4,0,0,0,0,4,12,8,8,8,12,12,12,8,4,0,4,8,12,8,9,4,4,4,8,25,25,16,16,12,3,8,12,4,4,0,9,4,8,4,12,12,12,12,12,12,11,16,12,3,8,13,12,17,12,16,15,16,11,20,23,32,36,28,15,16,8,3,8,7,12,12,8,3,8,12,9,4,4,8,12,16,16,20,16,16,28,36,32,31,32,23,24,24,19,29,20,20,16,9,16,24,23,15,21,20,15,20,12,17,8,4,4,12,8,18,8,12,12,12,12,12,12,8,4,4,8,8,4,9,12,15,27,40,52,51,47,43,51,55,56,44,32,32,31,40,43,43,48,43,47,47,47,43,39,39,43,51,60,65,43,27,28,23,20,15,16,16,12,7,12,4,0,0,0,4,8,8,4,4,4,0,0,0,4,3,4,0,0,4,8,16,11,12,-1,-1,-1,-1,-1,-1,-1,-1,-1,-1,-1,-1,-1,-1,-1,-1,-1,-1,-1,-1,-1,-1,-1,-1,-1,-1,-1,-1,-1,-1,-1,-1,-1,-1,-1,-1,-1,-1,-1,-1,-1,-1,-1,-1,-1,-1,-1,-1,-1,-1,-1,-1
-1,-1,-1,-1,-1,-1,-1,-1,-1,-1,-1,-1,-1,-1,-1,-1,-1,-1,-1,-1,-1,-1,-1,-1,-1,-1,-1,-1,-1,-1,-1,-1,-1,-1,-1,-1,73,78,72,63,68,80,88,79,66,72,64,53,36,34,21,8,4,4,12,8,9,17,25,25,20,8,12,20,23,36,40,40,45,40,40,40,45,41,27,27,36,31,19,8,0,9,9,17,20,24,20,20,15,20,28,32,23,28,27,31,31,31,31,31,31,36,31,40,36,31,31,32,27,36,44,47,44,27,27,43,55,63,55,35,24,16,7,0,8,13,9,13,4,4,8,4,9,4,8,4,12,17,13,12,12,17,17,17,8,12,3,18,4,8,8,4,12,16,12,13,3,8,4,9,12,17,4,4,3,4,4,12,12,16,15,15,15,15,16,12,12,8,3,12,12,11,16,12,12,12,12,12,4,4,8,7,7,12,8,8,13,4,0,4,8,12,8,4,0,0,4,4,4,12,16,8,8,4,7,12,4,0,0,4,8,12,3,8,8,3,4,8,12,16,20,16,8,4,0,4,9,12,12,12,8,0,4,8,12,12,4,0,0,4,8,12,9,0,0,0,0,4,12,8,4,4,12,7,12,12,4,4,4,8,8,9,0,0,4,0,9,4,4,3,4,4,3,4,0,4,8,4,0,0,0,0,0,0,0,0,0,0,4,4,0,0,0,0,0,0,4,4,0,0,0,0,0,4,8,12,12,12,16,16,7,3,8,12,12,12,8,4,4,12,12,0,12,12,4,12,7,7,7,12,8,0,8,4,3,3,8,8,4,3,8,12,11,12,7,12,16,25,20,24,20,16,11,16,15,16,21,16,15,15,20,15,15,20,12,12,3,12,8,4,4,8,8,4,8,4,0,0,0,3,16,23,36,45,39,39,35,31,31,27,23,20,20,16,16,16,7,4,8,12,21,12,4,4,3,3,8,4,0,4,12,16,20,24,16,16,12,8,8,8,12,12,4,8,16,16,21,29,28,27,31,43,51,60,59,68,58,55,40,27,32,36,43,47,47,47,47,47,47,47,43,43,39,43,47,43,40,41,32,28,24,20,16,12,8,4,4,12,11,12,4,0,0,0,0,0,4,8,4,0,0,0,4,13,4,0,4,8,12,11,16,12,-1,-1,-1,-1,-1,-1,-1,-1,-1,-1,-1,-1,-1,-1,-1,-1,-1,-1,-1,-1,-1,-1,-1,-1,-1,-1,-1,-1,-1,-1,-1,-1,-1,-1,-1,-1,-1,-1,-1,-1,-1,-1,-1,-1,-1,-1,-1,-1,-1,-1,-1,-1
-1,-1,-1,-1,-1,-1,-1,-1,-1,-1,-1,-1,-1,-1,-1,-1,-1,-1,-1,-1,-1,-1,-1,-1,-1,-1,-1,-1,-1,-1,-1,-1,-1,-1,-1,-1,25,20,24,33,37,41,50,53,56,64,69,60,51,43,45,24,29,32,36,36,40,39,39,31,20,12,4,12,16,15,15,15,20,24,16,13,14,13,7,16,20,20,16,12,0,21,25,25,24,23,28,23,19,20,16,16,15,23,32,31,31,31,27,31,31,31,40,36,36,31,31,32,31,40,39,39,35,36,35,39,47,55,55,48,45,28,16,4,16,24,20,16,12,12,4,7,12,4,12,12,12,16,4,8,12,4,4,4,17,16,18,12,11,11,7,0,8,13,0,4,14,9,0,4,9,9,8,3,8,7,12,4,0,9,12,16,15,15,20,24,20,16,12,4,4,8,4,4,8,12,16,16,12,12,3,8,3,8,12,12,8,0,8,12,12,12,13,8,4,4,8,4,4,8,13,4,12,8,13,4,0,0,0,0,4,9,12,12,8,3,12,8,0,8,18,4,9,0,4,8,8,8,12,7,7,8,4,4,9,8,4,4,8,8,4,0,4,4,0,0,4,8,4,4,3,8,8,4,0,4,4,8,4,4,4,4,4,0,0,9,0,4,4,0,0,4,13,4,0,4,4,0,0,0,0,0,0,0,0,0,0,0,4,4,0,0,0,0,0,0,4,4,4,8,8,4,0,0,0,4,3,3,12,12,4,4,12,12,8,4,0,0,4,8,8,4,8,12,12,9,4,4,8,4,0,4,8,8,4,4,8,9,0,4,12,16,16,20,20,20,33,23,19,24,20,16,21,16,15,20,29,20,20,19,20,15,15,16,12,7,8,4,4,8,12,8,4,4,8,4,0,0,4,12,15,27,40,39,40,36,36,31,31,23,20,20,12,12,17,8,4,4,4,4,4,0,0,0,0,0,4,4,0,4,8,12,16,16,12,12,4,0,0,0,4,12,7,17,17,16,32,44,39,35,31,35,43,56,59,63,64,51,43,49,52,47,47,47,43,39,39,43,47,43,43,47,47,47,47,36,20,16,16,16,12,7,12,12,12,8,4,4,12,7,12,12,12,12,12,8,8,8,4,4,3,8,4,9,4,8,12,7,7,8,4,4,-1,-1,-1,-1,-1,-1,-1,-1,-1,-1,-1,-1,-1,-1,-1,-1,-1,-1,-1,-1,-1,-1,-1,-1,-1,-1,-1,-1,-1,-1,-1,-1,-1,-1,-1,-1,-1,-1,-1,-1,-1,-1,-1,-1,-1,-1,-1,-1,-1,-1,-1,-1
-1,-1,-1,-1,-1,-1,-1,-1,-1,-1,-1,-1,-1,-1,-1,-1,-1,-1,-1,-1,-1,-1,-1,-1,-1,-1,-1,-1,-1,-1,-1,-1,-1,-1,-1,-1,4,8,4,0,0,0,4,12,24,28,32,40,44,48,52,57,52,43,48,43,44,45,41,24,7,4,4,4,4,9,12,15,23,23,20,18,15,15,3,8,12,7,12,8,4,25,23,29,20,20,16,16,15,29,20,16,16,15,19,32,31,31,40,31,35,35,31,36,35,35,40,40,35,39,48,47,53,40,39,43,47,47,48,47,51,39,29,8,17,20,19,15,12,8,8,12,12,4,8,8,3,8,13,16,20,12,7,16,16,25,21,12,9,14,13,8,4,0,4,4,12,16,7,8,3,4,8,7,12,17,8,4,4,4,4,12,12,12,16,25,25,15,16,7,9,4,0,4,12,12,12,12,16,16,12,3,8,4,4,3,4,4,9,12,12,12,12,8,0,4,8,13,8,9,3,4,4,13,12,12,4,0,0,4,8,8,8,8,4,4,9,9,4,8,12,16,8,4,4,8,4,0,4,8,12,12,8,9,4,4,4,0,9,13,4,4,4,3,4,4,8,8,4,0,9,0,9,8,4,4,4,8,4,4,13,4,4,8,12,8,9,8,12,8,4,4,9,8,4,4,8,4,0,0,0,0,0,0,0,0,0,0,4,8,4,0,0,0,0,0,4,4,4,12,12,8,4,0,0,0,0,4,12,12,4,4,8,4,0,0,0,0,0,0,0,0,4,12,8,9,4,4,4,0,0,4,8,9,0,4,12,7,12,21,11,20,20,23,23,23,24,15,20,20,24,24,29,20,15,20,19,20,15,25,16,12,16,16,16,12,7,7,12,12,8,4,0,4,8,4,0,4,12,16,20,23,36,31,32,31,36,31,31,32,32,32,20,7,3,8,12,4,4,4,4,4,8,8,4,4,4,4,3,4,0,0,0,4,4,9,4,0,0,4,12,16,20,20,12,20,32,39,44,35,31,35,44,48,43,47,52,47,47,56,55,55,51,47,43,39,43,43,44,39,43,47,51,47,41,16,8,3,12,12,7,12,12,12,12,12,12,8,4,4,8,12,12,12,12,12,12,4,4,8,12,12,8,8,12,12,8,3,8,7,12,8,3,-1,-1,-1,-1,-1,-1,-1,-1,-1,-1,-1,-1,-1,-1,-1,-1,-1,-1,-1,-1,-1,-1,-1,-1,-1,-1,-1,-1,-1,-1,-1,-1,-1,-1,-1,-1,-1,-1,-1,-1,-1,-1,-1,-1,-1,-1,-1,-1,-1,-1,-1
-1,-1,-1,-1,-1,-1,-1,-1,-1,-1,-1,-1,-1,-1,-1,-1,-1,-1,-1,-1,-1,-1,-1,-1,-1,-1,-1,-1,-1,-1,-1,-1,-1,-1,-1,-1,0,4,4,0,4,8,8,0,12,12,12,16,25,32,35,48,49,32,29,25,25,20,20,16,17,16,29,37,36,32,25,13,21,29,32,45,38,35,17,12,7,8,4,4,16,24,25,21,17,12,4,4,8,25,24,23,20,15,20,32,31,39,43,39,39,40,31,36,35,44,43,39,43,43,43,56,51,47,39,39,43,43,39,52,52,47,57,41,33,17,18,12,8,0,8,4,4,8,4,0,4,12,20,28,28,28,23,24,12,13,8,12,11,20,20,12,8,16,12,17,12,12,9,4,0,4,4,8,3,8,4,0,4,8,0,8,4,4,8,7,12,16,15,16,17,4,0,4,4,0,4,8,12,12,7,7,7,12,8,8,12,12,8,4,0,4,8,4,4,3,13,4,9,8,7,8,9,8,12,4,0,4,3,4,4,8,12,8,4,4,8,12,4,9,8,4,0,0,4,4,0,0,4,8,8,3,8,12,9,4,8,8,9,4,12,12,8,9,0,4,8,4,0,3,12,12,8,9,3,4,8,7,8,3,13,4,8,12,12,12,12,12,9,9,0,4,9,8,8,4,4,0,0,0,0,0,0,0,4,8,8,4,4,4,0,0,0,0,0,0,4,8,4,4,4,4,0,0,0,4,3,4,8,8,4,8,9,0,0,0,0,0,0,0,0,0,0,4,8,17,4,4,12,8,0,8,12,8,4,0,4,4,12,20,20,20,20,20,20,24,23,32,36,23,23,28,23,20,11,16,16,12,8,8,8,12,12,16,20,16,12,12,8,4,4,3,4,4,8,4,0,4,8,12,12,15,32,31,36,36,31,27,32,31,31,36,19,15,20,15,11,3,4,4,4,4,12,12,12,12,8,3,13,4,0,0,4,8,12,8,4,0,4,12,16,15,20,20,20,32,31,31,32,36,39,43,35,36,35,48,48,39,43,60,59,63,59,51,47,43,39,39,40,40,40,44,40,38,17,4,8,16,12,7,8,4,0,0,0,4,4,13,3,8,8,3,4,0,0,4,3,4,4,8,8,12,11,16,16,12,12,17,7,12,8,13,-1,-1,-1,-1,-1,-1,-1,-1,-1,-1,-1,-1,-1,-1,-1,-1,-1,-1,-1,-1,-1,-1,-1,-1,-1,-1,-1,-1,-1,-1,-1,-1,-1,-1,-1,-1,-1,-1,-1,-1,-1,-1,-1,-1,-1,-1,-1,-1,-1,-1,-1,-1
-1,-1,-1,-1,-1,-1,-1,-1,-1,-1,-1,-1,-1,-1,-1,-1,-1,-1,-1,-1,-1,-1,-1,-1,-1,-1,-1,-1,-1,-1,-1,-1,-1,-1,-1,-1,0,4,4,0,4,13,9,4,4,0,0,0,4,12,16,20,16,8,3,8,12,16,24,41,58,65,69,60,51,51,56,61,53,38,18,45,43,48,40,32,23,24,12,8,24,20,8,12,17,12,4,9,3,8,16,28,32,28,28,24,28,41,35,44,40,27,27,31,31,40,39,43,43,43,47,43,43,47,43,39,39,39,43,44,39,51,63,72,56,44,33,12,8,7,12,4,4,8,12,8,3,8,7,21,20,25,25,21,16,7,21,20,25,20,16,7,13,21,19,29,16,4,4,4,8,12,4,4,8,17,8,4,4,4,4,8,8,4,4,9,12,12,16,16,8,4,4,8,4,0,4,8,4,4,8,7,7,7,12,16,11,7,3,12,12,8,9,0,0,9,12,17,7,8,13,13,8,3,12,12,12,12,12,12,12,12,11,12,12,12,12,16,12,8,12,12,12,12,12,4,0,0,4,4,9,0,4,3,4,9,8,12,12,8,8,8,8,3,4,4,8,8,8,12,12,12,0,8,13,4,8,3,8,3,3,4,8,4,0,0,4,8,12,8,4,4,8,12,9,4,8,4,0,0,0,0,0,0,4,12,12,12,12,8,4,0,0,0,0,0,4,8,4,9,8,8,4,4,8,12,12,8,8,12,12,12,8,4,0,0,0,0,0,0,0,0,0,4,12,12,3,4,8,12,8,13,8,0,3,4,4,8,4,4,12,16,16,16,16,20,19,41,36,23,16,16,15,16,16,12,12,4,0,4,12,7,7,12,16,16,12,7,12,12,12,12,8,0,8,4,0,4,0,0,4,8,21,24,27,36,31,28,19,23,27,24,16,16,20,20,12,8,3,8,12,4,4,3,11,16,12,12,8,12,12,12,12,12,8,4,0,4,12,16,15,15,19,36,44,52,43,35,44,52,47,39,31,36,40,49,40,39,43,47,56,65,56,47,43,39,43,39,35,31,27,27,28,11,17,30,37,27,20,12,4,0,0,0,0,0,9,4,4,8,12,12,8,4,0,0,0,4,8,4,4,12,12,9,9,12,12,8,9,4,9,4,4,-1,-1,-1,-1,-1,-1,-1,-1,-1,-1,-1,-1,-1,-1,-1,-1,-1,-1,-1,-1,-1,-1,-1,-1,-1,-1,-1,-1,-1,-1,-1,-1,-1,-1,-1,-1,-1,-1,-1,-1,-1,-1,-1,-1,-1,-1,-1,-1,-1,-1,-1
-1,-1,-1,-1,-1,-1,-1,-1,-1,-1,-1,-1,-1,-1,-1,-1,-1,-1,-1,-1,-1,-1,-1,-1,-1,-1,-1,-1,-1,-1,-1,-1,-1,-1,-1,-1,-1,-1,-1,-1,-1,-1,7,8,4,0,-1,-1,-1,4,3,4,4,8,12,12,12,17,20,36,52,64,65,52,45,49,56,68,63,55,36,23,24,36,40,31,32,28,25,8,25,16,0,7,16,16,7,4,9,4,3,29,31,35,40,36,32,23,32,35,40,36,36,27,27,32,31,39,44,40,48,47,39,35,40,35,44,43,39,53,43,43,65,56,57,39,36,23,17,13,7,12,8,4,8,12,12,12,8,8,12,16,16,16,3,20,28,28,23,20,20,16,26,16,25,16,8,4,8,3,12,8,4,4,4,13,8,8,4,12,8,3,8,3,8,8,4,0,9,4,9,8,12,8,4,4,8,4,4,8,7,7,7,8,3,8,12,4,4,8,12,13,4,0,4,8,8,13,4,12,16,11,4,12,16,15,15,16,11,16,15,16,12,12,16,16,12,12,8,8,7,16,20,19,20,12,12,12,12,0,3,4,0,0,4,8,7,12,16,12,12,12,12,12,12,8,9,8,12,8,4,8,0,12,12,3,4,8,4,4,0,4,8,4,0,0,0,0,4,8,8,8,8,7,7,8,9,0,0,0,0,0,0,0,4,4,4,8,8,4,0,0,0,0,0,0,4,8,0,12,8,4,0,4,12,8,8,12,12,12,8,3,8,8,4,0,0,0,0,0,0,0,0,0,4,8,12,8,4,4,12,7,12,4,9,3,4,8,12,12,12,16,20,20,16,16,11,21,20,23,25,12,7,20,20,7,4,4,0,0,4,8,7,7,7,12,12,12,16,12,8,8,8,3,8,3,8,7,8,4,4,0,4,4,17,29,28,23,23,24,29,20,16,16,7,12,7,7,7,17,7,8,4,16,19,23,15,7,8,7,16,15,11,8,8,12,12,16,16,20,28,36,44,51,63,63,59,56,56,56,48,35,31,40,40,45,24,28,35,39,31,36,41,31,31,31,36,41,28,23,27,27,33,19,32,31,32,34,12,4,0,0,0,0,0,4,3,8,8,3,3,8,8,12,8,4,0,4,8,4,4,4,0,9,13,8,8,9,4,4,3,9,4,-1,-1,-1,-1,-1,-1,-1,-1,-1,-1,-1,-1,-1,-1,-1,-1,-1,-1,-1,-1,-1,-1,-1,-1,-1,-1,-1,-1,-1,-1,-1,-1,-1,-1,-1,-1,-1,-1,-1,-1,-1,-1,-1,-1,-1,-1,-1,-1,-1,-1,-1
-1,-1,-1,-1,-1,-1,-1,-1,-1,-1,-1,-1,-1,-1,-1,-1,-1,-1,-1,-1,-1,-1,-1,-1,-1,-1,-1,-1,-1,-1,-1,-1,-1,-1,-1,-1,-1,-1,-1,-1,-1,-1,-1,-1,-1,-1,-1,-1,-1,-1,-1,-1,-1,-1,-1,-1,-1,-1,-1,-1,20,25,25,16,12,16,25,41,53,57,44,29,12,28,31,31,27,19,16,12,22,12,12,16,16,16,12,12,16,16,7,13,20,41,39,43,44,32,27,36,49,43,49,35,40,36,36,31,32,36,40,52,43,49,31,36,35,39,47,56,51,52,43,44,40,31,32,31,36,29,4,8,12,0,8,7,7,12,8,8,16,16,16,18,8,16,20,20,15,20,12,16,16,13,9,0,4,8,4,4,4,4,17,16,12,17,8,8,8,8,12,4,4,4,8,4,4,4,3,4,4,9,8,4,4,8,8,3,8,7,7,7,7,7,12,12,3,12,17,8,4,8,25,20,12,0,4,12,12,12,9,9,4,8,12,12,12,12,12,12,12,12,7,7,12,12,12,12,12,12,16,16,15,25,15,15,16,11,11,12,12,12,12,12,12,12,12,12,12,12,12,12,12,12,12,12,12,8,12,12,12,7,8,9,9,0,4,4,4,4,0,4,8,4,0,0,4,8,12,12,12,12,12,12,12,12,8,4,0,0,0,4,8,12,12,4,0,0,0,0,0,0,0,0,0,4,8,8,0,3,4,0,0,4,8,4,4,3,4,3,0,8,12,9,0,0,0,0,0,0,0,0,0,0,0,4,8,12,12,8,4,4,4,8,3,8,8,4,12,12,12,12,17,12,16,20,16,16,19,32,32,42,25,16,11,12,4,4,0,0,4,8,7,7,12,12,16,12,12,8,4,4,8,0,8,3,12,16,16,25,29,32,42,28,28,25,9,16,23,24,20,16,15,20,16,11,16,20,11,8,8,13,7,24,32,28,15,12,8,8,12,16,12,16,20,32,40,45,40,40,35,43,47,51,64,64,59,54,60,51,39,40,31,40,36,38,21,21,28,36,28,16,21,24,24,23,23,20,15,24,29,20,21,16,23,24,12,9,4,0,0,0,0,0,0,0,0,4,8,8,4,0,4,8,12,8,8,8,4,0,4,4,4,8,7,17,12,4,9,12,12,12,4,-1,-1,-1,-1,-1,-1,-1,-1,-1,-1,-1,-1,-1,-1,-1,-1,-1,-1,-1,-1,-1,-1,-1,-1,-1,-1,-1,-1,-1,-1,-1,-1,-1,-1,-1,-1,-1,-1,-1,-1,-1,-1,-1,-1,-1,-1,-1,-1,-1,-1,-1
-1,-1,-1,-1,-1,-1,-1,-1,-1,-1,-1,-1,-1,-1,-1,-1,-1,-1,-1,-1,-1,-1,-1,-1,-1,-1,-1,-1,-1,-1,-1,-1,-1,-1,-1,-1,-1,-1,-1,-1,-1,-1,-1,-1,-1,-1,-1,-1,-1,-1,-1,-1,-1,-1,-1,-1,-1,-1,-1,-1,-1,-1,-1,-1,-1,-1,-1,-1,20,32,36,32,22,25,32,28,28,33,21,12,17,12,15,24,20,16,16,16,15,20,20,16,8,21,32,32,40,44,49,39,48,43,48,43,43,43,35,31,36,40,36,49,52,52,35,36,35,43,51,64,59,55,52,47,47,48,49,31,36,23,16,12,12,3,12,12,8,4,4,8,13,13,16,20,12,4,9,9,8,4,4,4,4,3,12,4,4,8,4,4,12,8,4,21,12,12,12,12,9,0,4,4,4,4,4,4,8,4,0,4,9,8,12,8,0,8,4,4,8,3,8,7,7,7,7,8,3,7,11,12,8,16,24,24,16,12,17,12,12,12,12,8,4,0,0,0,0,0,4,8,8,3,8,12,12,7,7,12,12,16,16,16,11,11,11,12,12,12,12,12,12,12,12,12,12,11,12,8,4,0,0,0,4,3,4,4,3,8,8,12,8,4,9,12,7,7,16,11,16,7,12,12,12,3,8,12,12,12,8,3,7,12,8,7,12,8,3,4,0,0,4,8,12,12,8,4,0,0,0,0,0,0,0,0,4,8,8,4,0,0,0,0,0,4,8,4,0,0,0,9,0,9,12,8,4,0,0,0,0,0,4,8,12,8,4,0,0,4,8,12,3,12,7,7,7,17,13,8,12,8,4,0,4,12,16,20,20,15,25,24,31,40,27,16,7,7,12,17,12,8,4,4,8,3,8,12,16,7,8,8,12,8,13,8,3,8,4,4,16,27,43,60,61,43,39,40,28,13,17,16,11,16,16,7,13,9,17,21,16,7,8,17,20,24,24,20,16,7,8,8,7,12,12,25,27,44,47,60,59,55,52,43,47,47,43,47,51,59,63,59,51,52,40,36,32,33,37,37,20,16,12,12,16,19,37,28,23,19,23,29,16,0,3,4,8,12,0,8,4,0,0,0,0,0,0,0,0,4,8,7,12,12,12,8,3,8,12,8,4,3,4,4,0,0,4,9,8,8,8,12,12,4,8,8,-1,-1,-1,-1,-1,-1,-1,-1,-1,-1,-1,-1,-1,-1,-1,-1,-1,-1,-1,-1,-1,-1,-1,-1,-1,-1,-1,-1,-1,-1,-1,-1,-1,-1,-1,-1,-1,-1,-1,-1,-1,-1,-1,-1,-1,-1,-1,-1,-1,-1
-1,-1,-1,-1,-1,-1,-1,-1,-1,-1,-1,-1,-1,-1,-1,-1,-1,-1,-1,-1,-1,-1,-1,-1,-1,-1,-1,-1,-1,-1,-1,-1,-1,-1,-1,-1,-1,-1,-1,-1,-1,-1,-1,-1,-1,-1,-1,-1,-1,-1,-1,-1,-1,-1,-1,-1,-1,-1,-1,-1,-1,-1,-1,-1,-1,-1,-1,-1,13,21,33,31,32,26,17,12,12,18,12,3,18,16,16,20,15,20,16,16,12,8,13,9,9,4,13,12,30,36,35,45,49,44,44,35,40,39,44,35,40,40,31,31,49,47,48,44,35,35,48,50,55,48,35,44,43,55,59,57,40,41,32,20,16,8,8,8,8,12,12,15,32,32,27,24,12,4,12,12,8,4,4,0,0,3,12,12,4,9,8,12,20,24,20,17,4,9,4,4,8,4,4,4,4,4,4,8,7,12,16,21,7,3,8,12,3,8,4,4,4,4,4,8,3,8,12,12,12,4,4,4,8,9,13,8,9,12,16,16,16,16,12,8,4,0,0,0,0,4,8,12,12,8,3,8,12,12,12,8,8,12,7,7,12,12,12,12,7,8,4,0,4,8,12,12,12,12,12,8,8,12,12,12,8,9,4,3,4,0,0,0,4,4,9,0,12,16,20,20,16,16,12,12,7,7,12,12,7,8,8,8,12,12,12,12,12,12,12,8,4,4,8,8,4,0,0,0,4,8,12,12,12,8,8,8,12,8,4,0,0,0,0,0,0,0,4,12,8,4,4,3,0,8,8,4,8,8,4,4,8,12,12,12,12,12,4,0,0,0,0,4,4,8,12,7,12,16,16,12,8,8,12,12,8,4,4,4,12,7,12,12,25,23,28,24,24,23,28,32,19,11,8,4,4,12,12,12,12,12,12,7,7,17,7,12,7,8,3,8,16,28,36,58,39,39,43,47,39,28,12,4,8,13,13,8,7,12,12,21,16,17,17,16,16,16,20,24,15,16,21,7,8,8,7,20,23,36,43,55,59,60,56,47,47,47,47,48,43,52,56,61,51,48,31,19,20,29,32,32,16,4,3,11,20,37,35,31,27,28,28,20,8,0,4,8,4,4,0,4,4,0,0,0,0,0,0,0,0,4,13,8,11,16,12,12,4,4,3,4,0,13,8,4,0,0,4,12,8,4,0,4,8,12,9,4,-1,-1,-1,-1,-1,-1,-1,-1,-1,-1,-1,-1,-1,-1,-1,-1,-1,-1,-1,-1,-1,-1,-1,-1,-1,-1,-1,-1,-1,-1,-1,-1,-1,-1,-1,-1,-1,-1,-1,-1,-1,-1,-1,-1,-1,-1,-1,-1,-1,-1
-1,-1,-1,-1,-1,-1,-1,-1,-1,-1,-1,-1,-1,-1,-1,-1,-1,-1,-1,-1,-1,-1,-1,-1,-1,-1,-1,-1,-1,-1,-1,-1,-1,-1,-1,-1,-1,-1,-1,-1,-1,-1,-1,-1,-1,-1,-1,-1,-1,-1,-1,-1,-1,-1,-1,-1,-1,-1,-1,-1,-1,-1,-1,-1,-1,-1,-1,-1,3,4,21,28,44,80,88,79,67,59,32,16,8,16,16,16,16,20,16,12,12,12,4,12,8,17,20,16,3,12,20,19,28,35,52,57,44,44,39,35,35,44,35,31,45,39,47,47,48,39,35,39,43,39,44,35,43,51,64,55,51,43,40,28,15,7,4,12,12,4,12,20,23,33,20,20,16,8,13,12,17,8,4,8,12,12,12,8,4,13,16,12,12,26,21,12,4,13,0,13,4,0,4,4,4,4,4,8,12,20,23,23,20,16,12,7,8,4,0,4,8,4,4,8,4,4,8,12,7,12,9,4,3,9,4,14,9,16,20,20,25,15,16,12,12,12,12,12,12,12,8,4,4,8,4,0,0,4,8,12,12,4,4,8,8,4,3,12,12,12,12,8,8,12,12,12,8,4,8,8,8,12,12,12,8,4,9,13,4,0,0,4,8,12,17,7,7,16,11,16,8,4,0,0,4,8,4,4,8,12,12,8,4,4,8,8,8,12,12,7,12,12,7,8,4,0,4,8,12,12,12,12,12,12,12,12,8,4,0,4,3,4,0,0,0,0,4,8,12,8,4,0,0,0,0,4,12,12,0,8,12,12,8,4,0,4,8,4,0,0,0,4,4,8,8,8,7,7,8,4,0,3,11,16,12,13,8,4,4,8,12,12,16,24,23,32,23,29,25,20,25,12,7,8,3,8,12,8,8,8,12,12,4,4,4,4,8,7,12,12,11,16,16,29,27,36,36,45,40,27,25,4,4,8,8,13,4,7,20,28,28,28,24,11,3,4,16,33,23,32,37,19,16,16,29,37,32,27,31,44,43,48,52,47,47,47,44,32,27,31,31,36,36,32,33,20,16,25,19,20,20,16,12,12,11,21,25,28,28,23,20,12,8,8,8,12,4,4,4,8,4,0,0,0,0,0,0,0,4,8,8,12,12,12,4,4,8,4,4,8,12,16,12,4,0,0,4,3,4,0,4,8,8,4,9,13,-1,-1,-1,-1,-1,-1,-1,-1,-1,-1,-1,-1,-1,-1,-1,-1,-1,-1,-1,-1,-1,-1,-1,-1,-1,-1,-1,-1,-1,-1,-1,-1,-1,-1,-1,-1,-1,-1,-1,-1,-1,-1,-1,-1,-1,-1,-1,-1,-1,-1
-1,-1,-1,-1,-1,-1,-1,-1,-1,-1,-1,-1,-1,-1,-1,-1,-1,-1,-1,-1,-1,-1,-1,-1,-1,-1,-1,-1,-1,-1,-1,-1,-1,-1,-1,-1,-1,-1,-1,-1,-1,-1,-1,-1,-1,-1,-1,-1,-1,-1,-1,-1,-1,-1,-1,-1,-1,-1,-1,-1,-1,-1,-1,-1,-1,-1,-1,-1,0,4,8,16,40,67,91,100,82,81,44,21,12,16,20,20,16,16,16,15,15,15,15,25,29,28,28,20,7,4,12,15,32,39,56,55,43,36,31,44,43,47,43,48,47,48,47,50,60,47,48,39,39,47,47,47,43,39,48,47,47,43,40,31,28,24,16,12,8,12,8,9,8,12,17,12,16,16,12,16,20,20,12,13,12,7,7,12,12,21,17,12,8,0,8,12,9,3,4,9,8,8,8,4,4,12,12,7,12,15,24,20,16,11,12,17,8,9,4,4,4,4,0,4,4,0,0,0,4,8,8,4,4,8,17,7,12,12,25,8,4,9,9,4,8,12,12,12,12,7,12,20,16,3,4,4,8,12,8,3,3,4,4,4,9,0,4,13,3,8,12,9,4,12,12,12,12,12,8,9,4,4,8,12,12,4,8,8,8,4,4,8,8,8,12,12,4,4,9,8,8,4,0,4,8,4,4,8,8,8,8,7,12,12,12,8,4,9,12,7,7,7,7,12,12,8,8,12,8,4,0,0,0,4,3,4,0,0,4,8,12,4,0,0,0,0,0,0,4,4,4,8,8,4,0,4,12,12,3,8,4,0,0,0,0,4,8,4,4,3,4,4,4,9,12,12,9,0,0,0,4,8,12,12,12,30,21,12,7,8,8,7,16,25,29,20,12,3,12,16,8,3,4,4,0,4,8,12,8,4,0,4,4,4,9,8,7,12,11,12,8,3,12,21,29,23,25,21,16,26,9,3,4,0,4,3,9,16,32,40,35,36,32,15,16,12,7,25,28,35,40,32,40,53,52,39,35,31,27,32,27,36,39,43,44,40,32,24,28,28,28,20,20,19,32,32,32,28,23,20,20,12,8,3,8,4,4,12,12,12,12,7,7,12,12,7,8,3,8,7,7,12,12,12,12,8,4,4,8,7,12,8,4,4,8,3,8,12,12,12,12,8,4,0,0,4,8,12,12,12,12,8,4,4,8,8,-1,-1,-1,-1,-1,-1,-1,-1,-1,-1,-1,-1,-1,-1,-1,-1,-1,-1,-1,-1,-1,-1,-1,-1,-1,-1,-1,-1,-1,-1,-1,-1,-1,-1,-1,-1,-1,-1,-1,-1,-1,-1,-1,-1,-1,-1,-1,-1,-1,-1
-1,-1,-1,-1,-1,-1,-1,-1,-1,-1,-1,-1,-1,-1,-1,-1,-1,-1,-1,-1,-1,-1,-1,-1,-1,-1,-1,-1,-1,-1,-1,-1,-1,-1,-1,-1,-1,-1,-1,-1,-1,-1,-1,-1,-1,-1,-1,-1,-1,-1,-1,-1,-1,-1,-1,-1,-1,-1,-1,-1,-1,-1,-1,-1,-1,-1,-1,-1,4,12,12,9,16,36,54,58,67,45,34,4,8,12,16,16,15,20,16,12,11,19,27,36,44,40,27,28,15,12,4,7,24,36,39,56,56,44,35,39,43,43,47,47,66,39,44,56,55,50,55,47,48,48,47,47,43,48,43,47,48,31,36,31,27,23,20,16,16,12,9,8,8,14,8,12,25,29,25,8,4,17,7,8,3,16,16,16,11,21,16,20,15,12,17,13,4,0,0,9,4,4,8,4,4,7,16,12,12,8,13,13,3,8,0,8,9,9,0,4,8,4,4,4,0,4,8,8,9,0,0,4,0,0,4,8,4,4,13,3,12,12,8,4,0,0,0,0,0,8,15,32,29,8,4,0,9,12,12,4,0,0,4,12,16,7,3,13,4,0,4,8,9,4,12,12,12,4,17,12,3,4,13,9,9,9,3,8,8,12,12,7,7,16,11,12,17,8,4,9,9,0,4,8,8,3,8,8,4,4,8,12,12,16,12,12,12,4,8,9,0,4,8,12,11,12,12,4,0,0,0,0,0,0,0,0,0,0,4,8,9,4,0,0,0,0,4,8,12,7,7,12,12,8,4,4,8,8,4,4,0,0,4,8,12,8,4,8,4,9,0,4,8,7,12,4,8,4,0,0,0,9,8,4,16,19,24,16,12,7,12,12,8,4,3,12,12,12,15,28,24,12,4,8,4,8,12,12,12,12,8,4,4,4,12,12,12,12,16,20,16,21,7,7,17,8,4,4,4,17,27,13,4,4,8,3,12,20,31,44,43,39,45,31,32,20,16,12,23,39,52,48,47,55,55,47,44,31,36,27,28,27,27,28,24,20,16,24,23,20,16,12,20,20,23,27,27,38,24,16,12,12,4,4,4,4,3,4,0,0,4,8,12,16,12,16,11,12,7,7,12,12,12,12,12,12,12,12,8,4,9,0,0,4,8,8,3,8,7,7,12,8,4,0,0,4,12,12,12,12,8,4,0,0,0,0,0,-1,-1,-1,-1,-1,-1,-1,-1,-1,-1,-1,-1,-1,-1,-1,-1,-1,-1,-1,-1,-1,-1,-1,-1,-1,-1,-1,-1,-1,-1,-1,-1,-1,-1,-1,-1,-1,-1,-1,-1,-1,-1,-1,-1,-1,-1,-1,-1,-1
-1,-1,-1,-1,-1,-1,-1,-1,-1,-1,-1,-1,-1,-1,-1,-1,-1,-1,-1,-1,-1,-1,-1,-1,-1,-1,-1,-1,-1,-1,-1,-1,-1,-1,-1,-1,-1,-1,-1,-1,-1,-1,-1,-1,-1,-1,-1,-1,-1,-1,-1,-1,-1,-1,-1,-1,-1,-1,-1,-1,-1,-1,-1,-1,-1,-1,-1,-1,8,7,12,11,12,4,13,12,16,12,12,4,4,8,7,7,16,20,20,29,38,31,39,48,47,47,35,23,20,20,20,12,13,17,24,54,51,55,43,31,31,35,44,39,49,44,53,40,43,47,55,51,43,36,41,36,35,43,47,47,52,57,49,31,32,28,23,20,20,16,7,0,12,3,12,20,24,27,23,21,8,8,3,4,16,24,20,16,16,12,16,25,20,7,9,3,9,0,4,12,8,8,8,4,0,4,12,12,12,4,8,12,4,4,4,8,9,9,0,4,4,4,4,8,4,8,12,12,12,4,0,4,0,0,4,8,12,8,4,4,9,3,4,0,0,0,0,0,0,4,9,27,22,4,4,4,8,12,12,4,3,4,4,8,12,12,7,8,4,0,4,4,0,9,0,0,4,12,8,13,0,4,12,12,12,7,8,4,3,11,16,12,12,11,16,12,11,12,8,7,11,7,8,8,7,16,12,8,8,12,8,4,4,13,4,4,8,8,4,8,4,4,4,9,13,3,8,8,4,0,0,0,0,4,3,4,0,4,8,4,4,12,8,4,4,8,12,12,8,4,4,9,4,8,8,4,0,4,8,4,0,0,8,16,19,16,9,8,4,3,3,8,9,3,12,12,4,4,4,3,4,12,12,4,4,4,12,8,3,12,12,7,7,16,20,20,20,29,15,34,23,23,25,21,12,7,7,12,12,16,16,12,12,3,3,3,7,11,16,16,25,11,12,12,12,4,0,13,20,25,17,0,0,4,13,26,32,32,27,32,32,40,48,43,40,32,20,29,32,40,47,47,43,43,48,52,48,35,36,32,23,20,20,12,3,12,20,23,23,15,12,16,20,28,28,23,28,25,12,12,16,7,4,4,4,8,12,7,12,12,12,12,16,15,15,16,16,12,3,9,8,4,0,0,0,4,8,8,4,4,3,4,0,0,4,8,12,12,12,12,12,12,8,4,0,4,8,4,0,0,0,0,0,0,0,0,0,-1,-1,-1,-1,-1,-1,-1,-1,-1,-1,-1,-1,-1,-1,-1,-1,-1,-1,-1,-1,-1,-1,-1,-1,-1,-1,-1,-1,-1,-1,-1,-1,-1,-1,-1,-1,-1,-1,-1,-1,-1,-1,-1,-1,-1,-1,-1,-1,-1
-1,-1,-1,-1,-1,-1,-1,-1,-1,-1,-1,-1,-1,-1,-1,-1,-1,-1,-1,-1,-1,-1,-1,-1,-1,-1,-1,-1,-1,-1,-1,-1,-1,-1,-1,-1,-1,-1,-1,-1,-1,-1,-1,-1,-1,-1,-1,-1,-1,-1,-1,-1,-1,-1,-1,-1,-1,-1,-1,-1,-1,-1,-1,-1,-1,-1,-1,-1,8,4,4,12,17,12,20,15,15,20,12,16,20,15,16,16,12,16,23,39,57,43,47,47,43,45,31,40,40,36,23,20,20,11,9,25,41,52,47,57,43,44,35,31,41,39,56,47,43,43,48,43,40,36,27,40,48,43,47,47,60,59,56,43,44,35,31,32,28,16,8,0,4,8,9,17,21,25,15,20,12,8,9,8,21,24,20,20,20,17,8,12,12,0,13,8,8,12,12,8,4,4,8,4,4,8,8,7,16,16,12,8,8,3,8,17,12,17,0,8,3,8,4,4,4,8,4,4,3,4,4,12,12,12,8,8,12,12,8,4,4,0,0,0,0,0,0,0,0,9,12,24,20,8,4,0,4,8,8,4,12,8,4,0,0,4,8,8,4,0,4,4,4,3,4,0,4,8,8,7,3,4,8,7,8,8,13,8,8,12,12,8,3,8,7,12,8,3,8,12,12,12,12,4,9,8,17,12,12,8,4,4,8,8,8,8,8,7,7,12,12,8,13,4,4,12,12,12,4,0,0,0,0,0,9,0,0,4,8,4,4,8,12,0,12,16,8,4,8,7,11,16,12,12,9,0,0,4,9,8,12,12,12,12,26,17,9,4,8,4,8,16,11,4,13,4,14,0,0,9,3,18,8,4,0,9,4,8,0,12,8,0,12,12,21,21,15,24,16,12,12,29,23,20,12,7,12,12,12,16,16,12,7,8,4,4,12,12,7,8,8,4,9,9,14,4,12,34,27,24,17,9,4,3,34,40,44,35,31,32,40,39,48,39,40,31,23,23,37,31,35,35,31,27,32,36,35,31,19,20,19,20,7,4,4,8,16,20,24,19,23,28,23,27,27,23,19,29,16,12,12,12,17,17,12,12,8,9,12,16,15,15,15,16,12,8,3,12,8,9,9,0,0,0,0,0,4,3,4,0,0,0,0,0,0,4,8,12,8,4,0,4,8,12,12,12,9,0,0,0,0,0,4,8,8,4,0,-1,-1,-1,-1,-1,-1,-1,-1,-1,-1,-1,-1,-1,-1,-1,-1,-1,-1,-1,-1,-1,-1,-1,-1,-1,-1,-1,-1,-1,-1,-1,-1,-1,-1,-1,-1,-1,-1,-1,-1,-1,-1,-1,-1,-1,-1,-1,-1,-1
-1,-1,-1,-1,-1,-1,-1,-1,-1,-1,-1,-1,-1,-1,-1,-1,-1,-1,-1,-1,-1,-1,-1,-1,-1,-1,-1,-1,-1,-1,-1,-1,-1,-1,-1,-1,-1,-1,-1,-1,-1,-1,-1,-1,-1,-1,-1,-1,-1,-1,-1,-1,-1,-1,-1,-1,-1,-1,-1,-1,-1,-1,-1,-1,-1,-1,-1,-1,3,12,12,4,8,11,20,15,15,20,37,41,31,27,23,37,36,40,35,43,51,51,51,47,43,40,43,47,47,43,44,40,36,19,16,12,17,32,43,51,51,39,35,32,23,31,47,47,43,43,39,43,47,65,60,60,60,51,47,47,56,55,56,47,39,35,36,36,27,20,17,4,4,12,16,16,16,17,4,8,8,4,9,12,12,14,12,20,16,8,4,22,17,12,16,21,20,16,12,8,4,0,4,12,12,7,7,16,20,20,15,15,15,24,23,28,24,20,12,9,4,4,4,4,4,8,4,0,4,8,8,8,12,12,12,8,9,4,4,4,9,8,8,4,0,0,4,8,8,4,12,16,12,4,9,8,8,8,3,9,9,4,0,0,0,0,4,4,0,4,8,4,3,4,4,3,4,8,12,12,8,4,4,12,12,12,8,17,11,12,12,12,12,3,13,4,4,8,12,8,4,4,3,0,8,4,12,20,16,16,16,20,11,8,8,12,12,12,12,16,16,16,29,23,20,20,16,12,12,4,0,4,12,16,20,12,8,4,4,0,0,0,4,8,13,18,8,12,12,12,13,3,8,8,8,9,12,12,21,15,19,15,3,12,30,12,9,4,8,4,4,14,9,4,17,8,4,4,4,4,12,16,12,4,4,3,4,4,3,11,16,12,12,4,4,7,16,16,12,7,16,20,19,29,25,16,12,12,12,12,3,8,12,8,8,8,4,4,8,7,8,3,9,12,21,20,28,40,32,20,4,8,16,29,49,43,40,36,35,39,39,48,39,31,32,23,20,16,20,29,28,27,31,40,31,27,23,28,23,20,25,16,12,16,25,25,20,16,16,12,25,24,19,29,24,24,15,21,12,7,12,7,16,20,15,17,0,9,3,12,16,16,12,12,12,12,12,8,8,12,8,4,0,0,0,4,8,12,4,0,0,0,0,4,8,12,12,12,12,12,8,4,4,8,12,12,8,4,0,0,0,0,0,9,12,8,4,-1,-1,-1,-1,-1,-1,-1,-1,-1,-1,-1,-1,-1,-1,-1,-1,-1,-1,-1,-1,-1,-1,-1,-1,-1,-1,-1,-1,-1,-1,-1,-1,-1,-1,-1,-1,-1,-1,-1,-1,-1,-1,-1,-1,-1,-1,-1,-1,-1
-1,-1,-1,-1,-1,-1,-1,-1,-1,-1,-1,-1,-1,-1,-1,-1,-1,-1,-1,-1,-1,-1,-1,-1,-1,-1,-1,-1,-1,-1,-1,-1,-1,-1,-1,-1,-1,-1,-1,-1,-1,-1,-1,-1,-1,-1,-1,-1,-1,-1,-1,-1,-1,-1,-1,-1,-1,-1,-1,-1,-1,-1,-1,-1,-1,-1,-1,-1,12,11,7,3,7,15,28,28,28,31,47,55,56,56,60,77,63,56,43,43,47,47,51,51,55,59,59,55,51,51,55,47,39,32,23,20,12,17,28,40,43,39,35,36,40,36,35,39,43,43,47,47,50,63,62,62,63,59,55,47,48,48,52,47,56,52,35,31,27,27,41,37,25,12,12,16,20,11,9,12,12,4,9,7,15,29,25,26,9,4,21,33,28,20,20,29,25,12,12,7,8,4,3,11,16,16,16,16,21,16,15,15,20,23,32,23,24,16,12,7,7,8,0,8,4,8,12,8,4,4,4,0,0,0,4,4,3,3,8,0,8,8,12,12,8,4,0,9,9,4,8,8,4,3,16,12,8,8,12,8,8,8,4,4,0,4,8,8,4,8,8,4,9,0,4,12,8,4,3,8,8,8,3,8,4,3,8,8,16,16,12,12,11,12,4,13,12,12,3,4,8,12,12,16,25,25,20,15,25,15,20,24,20,12,8,12,12,7,7,12,12,15,23,32,28,20,16,16,7,12,8,4,9,22,12,16,12,3,8,4,0,0,4,12,15,20,16,8,3,4,8,8,4,0,4,12,25,20,16,12,22,9,8,21,15,7,8,20,25,7,9,16,11,4,12,16,7,0,8,8,8,3,4,0,0,0,0,4,0,9,14,9,8,4,4,12,12,12,8,12,20,28,31,41,28,20,15,15,11,8,8,12,8,3,17,11,7,4,4,12,12,4,8,20,28,37,35,39,27,20,4,16,32,44,47,48,35,44,39,39,35,36,31,27,23,28,28,24,20,20,11,15,28,32,37,27,32,32,27,28,11,8,0,7,23,32,28,20,16,21,12,16,20,20,20,20,15,12,12,16,16,16,21,21,12,9,0,12,12,7,12,12,8,3,8,12,8,4,4,3,4,0,0,0,0,0,9,13,4,4,3,4,0,4,12,12,12,12,12,12,12,4,0,4,3,4,4,8,8,4,0,0,4,8,12,4,8,8,-1,-1,-1,-1,-1,-1,-1,-1,-1,-1,-1,-1,-1,-1,-1,-1,-1,-1,-1,-1,-1,-1,-1,-1,-1,-1,-1,-1,-1,-1,-1,-1,-1,-1,-1,-1,-1,-1,-1,-1,-1,-1,-1,-1,-1,-1,-1,-1
-1,-1,-1,-1,-1,-1,-1,-1,-1,-1,-1,-1,-1,-1,-1,-1,-1,-1,-1,-1,-1,-1,-1,-1,-1,-1,-1,-1,-1,-1,-1,-1,-1,-1,-1,-1,-1,-1,-1,-1,-1,-1,-1,-1,-1,-1,-1,-1,-1,-1,-1,-1,-1,-1,-1,-1,-1,-1,-1,-1,-1,-1,-1,-1,-1,-1,-1,7,7,12,16,20,15,20,23,31,35,43,47,59,66,70,66,76,73,51,47,43,43,47,51,55,59,63,59,56,47,51,55,47,39,36,28,20,11,4,16,28,36,39,39,39,43,48,39,39,43,47,51,47,43,44,48,56,56,60,60,47,40,35,39,47,56,51,43,44,40,35,39,39,31,28,25,13,8,8,8,7,12,21,12,16,15,23,31,32,15,8,16,24,23,24,23,19,21,8,12,16,11,16,16,16,15,16,16,8,8,7,16,15,15,15,20,16,16,7,12,12,8,4,4,8,8,4,12,12,3,8,9,0,0,0,4,8,3,8,4,4,4,8,8,8,12,4,4,8,8,4,4,8,8,4,17,4,9,4,8,3,8,12,12,8,4,4,8,4,8,8,4,4,3,4,4,9,8,12,8,4,4,8,7,7,12,8,0,8,4,9,4,8,12,8,8,16,16,16,16,20,15,20,23,32,27,23,20,11,11,16,16,16,17,7,16,16,16,12,12,12,16,16,15,20,20,20,16,12,16,16,15,21,18,4,12,12,3,8,7,12,12,12,8,4,8,17,12,8,4,4,4,12,12,12,12,8,13,12,3,12,16,12,12,8,8,8,4,20,24,20,21,9,12,8,4,14,13,8,8,4,0,0,0,0,0,0,4,8,4,7,11,12,8,4,4,8,0,12,25,24,28,32,40,35,36,23,20,15,16,16,11,12,12,16,20,20,15,20,12,4,4,4,7,15,23,36,31,46,25,22,33,53,65,60,47,40,35,39,47,43,44,35,31,40,31,27,23,32,27,24,25,20,15,15,20,28,36,32,29,20,16,3,18,21,19,28,27,36,31,45,40,40,45,27,33,20,12,13,12,20,25,16,16,8,4,8,4,12,12,8,4,4,8,4,0,4,3,8,8,12,8,4,4,8,8,3,8,8,4,4,13,4,4,8,4,0,0,0,0,4,8,4,0,4,12,12,12,12,12,8,4,0,0,4,8,8,8,12,-1,-1,-1,-1,-1,-1,-1,-1,-1,-1,-1,-1,-1,-1,-1,-1,-1,-1,-1,-1,-1,-1,-1,-1,-1,-1,-1,-1,-1,-1,-1,-1,-1,-1,-1,-1,-1,-1,-1,-1,-1,-1,-1,-1,-1,-1,-1,-1
