-1,-1,-1,16,16,15,10,2,6,3,3,2,1,0,0,0,0,0,0,0,0,0,1,1,1,0,0,0,0,1,2,3,3,3,1,0,0,0,0,1,2,3,2,1,0,0,0,0,0,0,0,1,2,3,3,2,1,1,2,3,3,3,3,1,2,2,1,0,0,0,0,1,2,0,2,5,2,3,3,3,3,2,1,1,2,3,1,0,0,0,0,0,0,2,2,2,0,0,0,0,0,1,2,2,3,2,1,1,1,1,2,3,1,1,1,0,0,0,0,0,0,0,0,0,1,2,3,2,1,0,3,3,1,0,0,0,0,0,1,3,3,2,1,0,1,2,2,0,2,2,0,1,1,3,3,1,0,0,0,0,0,0,2,2,1,0,0,1,1,0,0,0,0,1,2,1,2,3,2,1,0,0,0,0,1,2,1,0,1,2,3,3,2,1,0,0,1,1,0,0,0,0,1,1,0,0,0,1,1,0,0,0,1,2,2,2,0,0,1,1,0,2,3,2,1,2,3,1,1,2,5,2,2,2,3,4,4,4,6,7,11,8,4,3,1,2,1,1,1,2,3,3,1,0,0,1,1,0,3,2,2,3,3,2,4,0,0,0,0,2,3,3,3,2,1,0,0,0,1,1,2,1,2,3,4,6,6,8,6,6,8,8,8,6,6,6,6,4,3,1,1,2,2,1,1,4,9,14,19,17,12,9,12,4,6,4,7,6,5,3,1,0,0,1,2,3,1,1,2,3,2,1,0,0,1,1,1,0,0,1,3,3,3,3,1,0,1,2,1,0,0,1,3,3,0,3,3,3,3,2,1,0,0,1,2,3,3,3,3,3,3,3,2,1,0,1,1,2,2,1,2,3,3,3,2,2,4,4,1,2,2,1,3,2,1,3,3,3,3,3,3,2,1,0,1,3,3,3,3,2,1,1,2,3,4,2,2,3,4,7,4,3,1,1,4,1,1,2,5,6,5,9,4,13,16,6,3,11,-1,-1,-1,-1,-1
-1,-1,-1,6,16,14,9,1,1,3,3,2,0,0,0,0,0,0,0,0,0,0,0,2,0,0,0,0,0,1,3,3,3,2,1,0,0,0,0,1,2,1,0,0,0,0,0,0,0,0,0,1,3,3,3,3,2,2,3,3,3,3,2,1,3,3,2,1,0,0,0,1,1,1,3,2,5,3,3,3,2,1,0,1,3,2,1,0,0,0,0,0,1,2,3,2,1,0,0,0,0,1,3,2,2,3,3,3,1,1,3,2,0,2,1,0,0,0,0,0,0,0,0,0,1,3,3,2,2,1,2,4,1,1,1,1,2,3,3,2,5,3,0,1,1,4,2,1,3,3,2,5,3,3,2,1,0,0,0,0,0,1,2,3,1,0,0,1,1,0,0,0,0,1,1,1,3,3,2,0,0,0,0,1,2,2,1,0,1,3,3,2,1,0,0,0,1,1,0,0,0,0,1,1,0,0,1,2,1,0,0,0,1,3,3,2,1,0,1,1,1,2,3,1,2,2,1,2,3,3,4,3,4,2,2,3,4,4,6,7,9,8,6,4,5,2,5,3,1,2,2,1,1,0,0,0,2,1,1,1,3,2,1,1,1,1,0,0,1,1,2,2,2,2,0,1,2,3,3,1,1,5,4,6,6,7,7,7,8,7,7,8,7,6,3,2,3,2,1,1,2,1,2,1,1,5,8,17,19,18,19,18,11,7,2,5,5,6,3,2,1,0,1,2,3,2,1,1,3,3,3,1,0,0,0,2,0,0,0,1,2,3,3,2,1,1,2,2,1,0,0,1,2,2,0,2,3,3,3,3,1,1,2,3,3,3,4,4,3,3,3,2,1,0,0,0,2,2,2,2,1,1,2,3,2,2,6,2,1,1,2,1,2,3,3,3,3,3,3,3,3,3,2,1,1,2,3,3,2,1,0,2,2,3,3,5,3,2,5,4,5,2,2,2,2,3,1,3,3,6,2,2,5,5,4,3,2,5,-1,-1,-1,-1,-1
-1,-1,-1,2,15,2,4,1,1,2,3,2,1,0,0,0,0,0,0,0,0,0,1,1,1,0,0,0,0,1,1,0,0,0,0,0,0,0,0,1,1,0,0,0,0,0,1,1,1,0,1,2,1,0,0,1,3,2,1,0,0,0,0,1,1,1,2,2,1,0,0,1,2,1,1,1,2,1,0,0,0,0,0,1,1,0,0,0,0,0,0,0,0,0,0,0,0,0,0,0,0,1,2,3,1,1,2,2,1,1,1,0,0,1,1,0,0,0,0,0,0,0,0,1,2,1,0,1,2,2,0,2,2,3,0,2,3,3,2,1,1,2,2,3,6,2,2,2,3,1,3,5,2,0,0,0,0,0,0,0,0,1,2,3,1,0,0,1,1,0,0,0,1,2,1,1,3,3,2,1,0,0,0,1,2,1,0,0,1,1,0,0,0,0,0,1,2,1,0,0,0,1,2,1,0,1,2,2,1,0,0,1,2,1,0,0,0,1,2,1,0,1,2,2,2,2,2,3,3,3,2,5,2,3,3,3,4,6,8,7,5,7,8,8,9,7,9,7,5,2,2,2,0,0,0,1,3,5,2,3,1,0,0,1,2,3,3,3,3,3,3,3,3,2,2,5,4,4,6,7,7,9,8,8,9,8,8,9,7,7,7,6,4,4,4,3,1,0,1,2,2,3,2,3,5,3,4,7,12,15,18,16,12,7,4,2,3,3,2,1,1,2,3,2,1,0,0,1,1,0,1,2,1,0,1,1,1,0,0,0,0,0,0,0,1,2,2,1,0,0,0,0,0,0,0,0,0,0,0,1,3,3,3,3,3,3,3,3,3,3,3,3,3,3,3,2,2,3,3,3,3,3,3,2,1,2,2,1,1,1,1,1,0,1,2,3,1,0,0,0,0,1,2,3,2,1,0,1,2,3,2,3,2,3,2,2,1,2,1,2,3,3,2,2,1,1,1,1,1,1,1,2,2,2,0,1,2,3,1,-1,-1,-1,-1
-1,-1,-1,11,6,6,3,2,1,3,2,2,3,3,2,2,2,2,1,0,0,0,0,0,0,0,0,0,0,1,1,0,0,0,0,0,0,0,0,1,1,0,0,0,1,2,3,3,3,3,3,2,1,0,0,1,1,1,0,0,0,0,0,1,1,0,1,2,3,3,3,3,1,1,1,1,2,2,1,0,0,0,0,1,1,0,0,0,0,0,0,0,0,0,0,1,1,1,0,0,0,0,0,1,1,0,0,0,1,2,1,0,0,1,1,0,0,0,0,0,0,0,0,1,2,1,0,1,2,2,1,2,2,2,1,4,6,7,6,3,5,5,3,4,10,12,12,10,11,8,3,1,1,0,0,0,0,0,0,1,2,3,3,2,1,0,0,1,1,0,0,1,2,2,1,1,2,2,1,0,0,1,2,3,1,0,0,1,2,1,0,0,0,0,0,1,2,1,0,0,0,1,2,1,0,1,2,1,0,0,0,1,2,1,0,0,0,1,2,1,0,1,2,1,0,1,2,2,3,2,2,1,1,0,1,2,5,4,7,8,5,8,8,8,8,9,9,9,9,8,8,8,7,7,7,7,4,4,4,3,3,3,3,5,4,4,4,4,6,6,7,7,7,7,6,7,5,7,9,9,10,10,9,10,10,9,10,9,8,5,7,6,4,4,3,5,3,3,5,3,4,4,6,6,7,4,3,3,4,4,9,11,7,6,3,1,2,3,2,1,2,3,2,1,0,0,0,1,1,0,1,2,1,0,0,0,0,0,0,0,0,0,0,1,2,2,1,0,0,0,0,0,0,0,0,0,0,0,0,1,2,2,2,3,3,2,2,2,2,3,3,3,3,3,3,3,3,3,2,1,2,3,3,3,2,2,1,1,2,3,1,3,3,3,2,1,2,1,0,0,0,0,1,2,3,3,3,3,3,3,3,3,3,2,1,3,2,1,2,3,3,2,1,4,1,1,1,1,1,1,2,1,1,1,0,0,1,1,0,-1,-1,-1,-1
-1,-1,-1,14,4,15,8,2,2,2,3,3,4,3,3,3,3,3,3,2,1,0,0,0,0,0,0,0,0,1,1,0,0,0,0,0,1,2,3,3,1,0,0,1,2,3,2,2,2,3,2,1,0,0,0,0,0,0,0,0,0,0,1,2,1,0,0,1,2,3,3,2,1,2,1,0,1,2,1,0,0,0,0,1,1,0,0,0,0,0,0,0,0,0,0,0,2,0,0,0,0,0,0,1,1,0,0,1,2,2,1,0,0,1,1,0,0,0,0,0,0,0,1,2,1,0,0,1,2,1,1,2,2,3,0,4,9,9,9,7,7,6,3,7,13,13,13,14,12,7,3,1,0,0,0,0,0,0,0,1,3,2,1,0,0,1,2,3,1,1,2,3,2,1,0,0,0,0,0,1,2,3,3,2,1,0,0,1,2,1,0,0,0,0,1,2,1,0,0,0,1,2,1,0,1,2,1,0,0,0,1,2,1,0,0,0,1,2,1,0,1,2,1,0,0,0,1,2,1,2,2,1,1,0,0,0,1,2,4,6,6,6,4,6,7,7,7,9,9,9,9,9,9,9,9,9,8,8,7,4,4,4,4,7,7,8,8,9,10,9,9,9,9,9,9,9,10,10,12,10,10,10,9,9,9,9,9,7,6,6,6,4,3,2,2,2,3,4,6,6,6,4,5,3,7,4,2,2,3,4,4,3,0,2,4,1,2,3,2,2,2,1,0,0,1,2,3,3,1,0,0,1,3,2,1,1,2,3,3,3,3,3,3,3,2,1,0,0,0,0,0,0,0,0,0,0,0,0,0,1,2,3,2,1,1,2,3,3,2,1,0,0,0,0,0,1,2,3,3,1,0,0,0,1,2,2,5,3,2,2,2,2,3,3,3,1,2,1,0,1,2,3,3,2,1,2,3,2,1,1,2,1,1,0,1,2,2,3,3,3,3,3,3,2,1,1,2,1,2,1,2,1,1,1,0,1,3,2,1,-1,-1,-1,-1
-1,-1,-1,6,2,10,6,6,3,3,3,3,3,3,3,4,3,3,3,3,2,1,0,0,0,0,0,0,0,1,1,0,0,0,0,1,2,3,3,2,1,0,0,1,2,1,0,0,0,0,0,0,0,0,0,0,0,0,0,0,1,2,3,2,1,0,0,0,0,1,2,3,3,2,1,0,0,1,2,1,0,0,0,1,1,0,0,0,0,0,0,0,0,0,0,1,1,1,0,0,1,2,3,3,1,0,1,2,2,1,0,0,0,1,1,0,0,0,0,0,0,0,1,2,1,0,1,2,1,0,1,3,3,2,2,7,10,8,10,7,6,4,3,4,11,8,8,8,6,3,1,2,1,0,0,0,0,0,0,1,1,0,0,1,2,3,3,2,1,1,3,2,1,0,0,0,0,1,2,3,3,2,1,0,0,0,1,2,1,0,0,0,0,0,1,2,1,0,1,2,3,2,1,0,1,2,1,0,0,0,1,2,1,0,1,2,3,2,1,0,1,2,1,0,0,0,0,1,2,2,1,2,5,2,1,1,2,3,3,5,3,4,4,6,6,7,8,8,9,9,8,8,8,8,8,8,9,9,9,8,8,9,10,13,10,9,10,11,11,10,11,13,13,13,14,11,11,10,12,10,10,9,8,5,7,7,6,4,4,4,4,3,3,2,2,5,4,4,6,6,4,3,2,5,5,3,2,4,5,3,4,4,1,2,1,2,2,2,3,3,1,0,1,2,3,3,3,2,1,0,0,1,2,3,3,3,3,3,3,3,3,3,3,2,1,0,0,0,0,0,1,1,1,0,1,2,3,3,3,3,3,2,1,1,2,2,1,1,2,3,2,1,0,0,0,0,0,0,1,3,2,1,0,1,2,3,2,2,2,1,2,1,0,0,1,2,1,3,3,3,3,3,3,3,3,3,2,1,0,0,2,2,0,0,1,1,1,2,5,4,4,3,2,2,1,1,2,1,2,1,1,1,2,1,0,1,2,3,1,-1,-1,-1,-1
-1,-1,-1,17,15,20,6,6,3,4,4,4,3,4,4,3,4,4,3,2,2,1,0,0,0,0,0,0,0,1,1,0,0,0,0,1,2,1,0,0,0,0,1,2,1,0,0,0,0,0,0,0,0,0,0,0,0,0,0,0,1,3,2,1,0,0,0,1,2,3,3,3,2,1,0,0,0,1,2,1,0,0,0,1,1,0,0,0,0,0,0,0,0,0,0,0,0,0,1,2,3,3,3,2,1,0,1,2,1,0,0,0,0,1,1,0,0,0,0,0,0,1,2,1,0,0,1,2,1,0,1,2,2,1,3,6,7,3,4,1,2,2,1,2,7,2,2,3,4,4,5,5,0,0,0,0,0,0,0,1,1,1,2,3,3,2,1,0,0,1,1,0,0,0,0,1,2,3,3,2,1,0,0,0,0,0,1,2,1,0,0,0,0,1,2,1,0,0,1,3,2,1,0,1,2,1,0,0,0,1,2,1,0,0,1,3,2,1,0,1,2,1,0,0,0,1,2,2,2,2,3,3,3,3,3,3,3,3,3,2,2,3,4,6,4,6,7,8,8,8,8,8,8,8,8,9,9,9,9,10,11,14,14,14,12,10,11,11,10,11,13,13,13,13,11,13,10,10,10,9,9,7,6,4,3,1,2,2,3,2,2,3,3,4,4,6,6,4,6,6,4,3,3,1,2,1,2,4,6,6,4,6,2,2,3,3,2,2,2,4,1,2,3,3,2,1,0,0,0,0,0,0,0,1,2,2,1,0,0,0,0,0,0,0,0,0,0,0,0,1,2,3,3,3,3,3,3,3,3,2,2,3,3,3,2,2,3,3,3,3,3,3,3,2,1,1,1,1,1,2,3,3,3,3,3,2,5,3,3,2,1,1,0,0,1,2,1,2,3,2,1,0,0,1,2,3,3,2,1,1,2,2,1,1,2,2,2,3,2,3,3,3,3,2,1,0,1,1,1,1,1,4,2,1,1,3,2,1,1,-1,-1,-1,-1
-1,-1,-1,13,11,14,17,3,6,2,5,4,4,4,3,3,3,3,2,2,1,2,1,0,0,0,0,0,0,1,1,0,0,0,0,1,1,0,0,0,0,1,2,2,1,0,0,1,1,1,0,0,0,0,0,0,0,0,0,1,2,1,0,0,0,0,0,1,3,2,1,0,0,0,0,0,0,0,1,1,0,0,0,1,1,0,0,0,0,0,0,0,0,0,0,1,2,3,3,3,2,1,0,0,0,1,2,1,0,0,0,0,0,1,1,0,0,0,0,0,0,1,2,1,0,1,2,1,2,2,0,3,4,5,1,1,6,7,6,3,2,2,1,4,7,4,2,3,6,6,6,6,1,0,0,0,0,0,0,1,1,2,3,2,1,0,0,0,0,1,1,0,0,0,0,1,3,2,1,0,0,0,0,0,0,0,1,1,0,0,1,1,1,1,2,1,0,1,2,1,0,0,0,1,2,1,0,0,0,1,2,1,0,1,2,1,0,0,0,1,2,1,0,1,2,3,3,3,2,3,2,2,2,3,4,4,3,3,3,4,4,3,4,4,4,4,4,6,7,8,9,9,9,9,9,9,10,9,9,9,12,11,14,12,9,9,10,9,9,10,10,9,8,9,9,9,8,7,9,7,4,3,3,2,1,1,2,3,0,2,2,2,3,3,4,3,5,3,3,5,3,2,1,5,1,2,3,2,1,2,2,4,1,2,2,2,2,1,3,2,1,3,2,1,0,0,0,0,0,0,0,0,0,0,0,0,0,0,0,0,0,0,0,0,0,0,0,0,1,2,2,2,2,3,2,1,2,3,3,3,3,3,3,3,3,3,3,4,3,3,3,3,3,3,3,3,3,3,3,3,3,3,3,2,3,3,2,2,2,2,1,1,0,0,0,1,3,2,1,1,2,2,1,0,0,0,1,2,3,3,2,2,2,3,2,2,3,3,3,1,1,2,2,1,1,0,1,1,1,1,0,2,2,1,1,2,3,2,2,2,-1,-1,-1
-1,-1,-1,4,3,5,11,20,2,6,6,7,8,7,8,6,2,1,2,1,2,2,3,2,1,1,2,3,2,1,2,2,1,1,0,1,2,1,0,1,2,3,2,1,0,0,0,0,2,0,0,0,0,1,2,3,3,3,3,3,2,1,0,1,1,1,1,2,1,0,0,0,0,0,0,0,0,0,1,2,1,1,2,3,1,0,0,0,0,0,0,0,0,0,0,1,3,3,2,1,0,1,2,2,1,0,1,1,0,0,1,2,3,3,1,0,0,0,0,1,2,3,1,0,0,1,2,1,2,2,0,1,4,2,7,14,10,7,2,9,12,12,10,7,2,4,2,2,7,8,8,5,2,3,6,4,1,2,3,5,2,2,1,0,0,0,0,0,0,1,1,0,0,1,2,3,1,0,0,0,0,0,0,1,2,3,3,1,0,0,0,2,2,3,1,0,0,0,2,2,1,0,0,1,1,0,0,1,2,3,1,1,2,3,2,1,0,0,0,1,1,0,0,0,2,1,1,2,4,6,8,6,6,4,4,4,4,3,3,5,4,4,4,3,3,3,3,4,8,9,9,9,10,11,13,14,9,8,8,8,8,7,8,8,8,7,5,7,7,6,7,7,4,7,7,6,4,4,5,3,2,1,0,0,0,1,2,3,1,1,1,2,3,4,6,4,3,3,2,1,0,0,1,5,2,2,2,1,1,2,3,2,2,1,2,2,2,7,6,6,2,1,0,0,0,0,0,0,0,0,0,0,0,0,0,0,0,0,0,0,0,0,0,0,0,0,0,0,0,1,1,0,0,0,0,1,3,3,3,2,2,3,3,3,2,1,0,2,2,3,4,4,7,6,6,3,2,2,3,3,2,2,0,0,2,1,1,0,0,1,2,5,3,2,2,2,4,4,3,1,2,2,0,0,0,0,0,1,2,3,3,6,4,4,4,3,1,0,1,1,2,2,1,0,1,0,1,1,1,1,1,2,2,1,1,0,1,3,2,3,-1,-1,-1
-1,-1,-1,9,13,12,8,7,11,4,7,8,8,9,7,7,7,6,4,6,4,4,3,3,1,0,2,2,2,1,2,1,2,0,0,1,2,1,0,0,2,2,2,1,0,0,0,1,1,1,0,0,0,1,3,3,3,3,3,2,1,0,0,0,2,1,2,2,1,0,0,0,0,0,0,0,0,0,1,2,1,1,3,2,1,0,0,0,0,0,0,0,0,0,0,1,1,0,0,0,0,1,3,3,3,3,2,0,1,2,3,3,3,2,1,0,0,0,1,2,3,2,1,0,0,1,1,1,2,2,0,3,2,1,7,11,11,3,5,11,13,10,11,6,2,5,4,3,9,12,7,8,7,4,7,6,0,3,3,2,3,1,0,0,0,0,0,0,1,2,1,0,0,1,3,2,1,0,0,0,0,0,0,1,3,3,2,1,0,0,1,1,2,2,1,0,0,1,2,3,1,0,0,1,1,0,0,1,3,2,1,1,3,2,1,0,0,0,1,2,1,0,0,1,2,2,1,3,5,7,6,8,6,4,4,4,4,3,2,2,2,5,4,4,5,5,6,6,6,7,7,8,8,11,12,11,8,8,8,8,7,7,7,6,5,6,4,6,5,2,1,2,3,2,3,4,4,4,3,3,3,5,3,3,3,5,4,4,3,4,3,2,2,5,6,5,3,2,1,0,0,0,1,2,1,2,3,1,0,0,1,2,2,0,2,1,3,6,7,4,2,0,0,0,0,0,0,0,0,0,0,0,0,0,0,0,0,0,0,0,0,0,0,0,0,0,0,0,1,2,1,0,0,0,1,2,1,0,0,1,3,3,2,1,0,0,1,1,2,3,3,5,6,7,3,3,3,2,1,0,2,1,1,1,1,1,1,0,0,1,3,2,3,3,3,3,3,5,2,2,1,2,3,3,3,3,3,2,2,2,3,4,4,4,4,5,3,2,1,3,4,4,5,3,5,3,3,1,1,1,2,2,1,1,1,0,1,2,1,5,-1,-1,-1
-1,-1,-1,12,14,8,17,5,2,4,3,2,3,5,2,3,5,8,6,6,5,2,2,1,1,1,2,3,2,1,2,2,1,1,0,1,2,1,0,1,2,3,3,2,1,0,0,0,0,0,0,0,0,1,1,0,0,0,0,0,0,0,0,1,2,2,2,1,0,0,0,0,0,0,0,0,0,0,0,1,1,1,1,0,0,0,0,0,0,0,0,0,0,0,0,1,1,0,0,0,0,1,1,1,2,3,2,2,3,3,2,1,0,0,0,1,2,3,3,2,1,0,0,0,0,1,1,0,0,0,1,2,1,0,1,1,1,0,3,3,2,0,1,2,6,6,7,10,13,11,2,3,6,3,1,1,1,1,0,1,1,0,0,0,0,0,0,0,1,2,1,0,1,2,1,0,0,0,0,0,0,0,0,1,1,0,0,0,0,0,0,1,1,0,0,0,0,0,1,2,1,0,1,2,1,0,0,1,1,0,0,1,1,0,0,0,0,0,1,2,1,0,1,1,2,2,1,1,0,1,1,2,4,4,4,3,3,3,3,3,3,3,4,6,8,8,7,7,4,3,5,4,4,3,3,3,6,8,7,6,6,8,7,6,4,4,4,3,3,3,3,3,3,2,2,3,4,4,4,4,6,8,8,8,8,9,7,7,7,7,6,4,5,2,1,1,2,3,2,1,0,0,0,1,1,1,2,1,0,1,2,2,1,0,1,2,1,0,0,0,0,0,0,0,0,0,0,0,0,0,0,0,0,0,0,1,1,1,0,0,0,0,0,0,0,0,0,0,0,1,1,0,0,0,1,2,1,0,1,2,1,0,0,0,0,0,0,1,1,0,0,0,0,1,2,1,2,3,3,2,2,3,3,3,2,1,1,1,2,2,1,2,2,2,2,1,1,1,2,5,3,3,3,3,3,3,3,3,3,3,2,1,2,3,2,2,3,4,4,4,6,6,6,4,3,3,2,1,1,1,2,1,2,2,1,2,3,2,2,7,-1,-1,-1
-1,-1,3,3,15,2,10,10,6,3,3,3,1,1,3,3,3,5,2,1,2,3,3,3,1,0,1,2,3,3,2,1,0,0,0,1,2,1,0,0,0,0,1,2,2,1,0,0,0,0,0,0,1,2,1,0,0,0,0,0,0,0,0,1,2,2,1,0,0,0,0,1,2,3,3,3,3,3,3,3,1,1,1,0,0,0,0,0,0,0,0,0,0,0,0,1,1,0,0,0,0,1,1,0,0,0,0,2,2,1,0,0,0,0,0,1,3,3,2,1,0,0,0,0,0,1,1,0,0,0,1,2,1,1,2,5,3,3,4,4,5,3,3,7,8,10,13,14,15,14,6,1,5,2,2,3,2,1,0,1,1,0,0,0,0,0,1,2,3,1,0,0,1,2,1,0,0,0,0,0,0,0,0,1,1,0,0,0,0,0,1,2,1,0,0,0,1,2,3,2,1,0,1,2,1,0,1,2,1,0,1,2,1,0,0,0,1,2,3,1,1,2,3,3,3,1,1,1,0,1,1,1,2,3,3,3,3,4,4,3,3,3,3,4,7,7,7,7,6,4,6,6,4,4,6,4,2,2,3,3,2,4,3,3,3,3,4,4,4,4,4,3,4,4,3,4,4,4,4,4,6,7,8,8,8,8,9,8,8,7,6,6,4,3,1,2,3,3,3,3,3,2,1,1,1,1,2,1,0,1,2,1,2,3,3,1,0,0,0,0,0,0,0,0,0,0,0,0,0,0,0,0,0,0,0,1,3,3,2,1,0,0,0,0,0,0,0,0,1,2,1,0,1,2,3,1,1,2,3,2,1,0,0,0,0,0,0,1,1,0,0,0,0,1,2,3,3,3,3,3,3,3,3,3,3,1,3,3,3,3,1,3,3,3,1,1,4,1,3,2,1,0,0,0,0,0,0,1,1,1,2,3,2,1,2,3,3,5,3,3,5,6,6,4,6,2,1,0,1,0,1,1,1,2,2,3,2,1,2,5,-1,-1,-1
-1,-1,1,7,16,4,13,8,4,2,0,2,1,1,2,3,3,2,1,0,2,3,5,3,3,3,3,3,3,2,1,0,0,1,2,3,1,0,0,0,0,0,0,1,1,0,0,0,0,0,1,2,3,2,1,0,0,0,0,0,1,2,3,3,2,1,0,0,0,0,0,1,3,3,3,3,3,3,3,2,1,1,1,0,0,0,0,0,0,0,0,0,1,2,3,3,1,0,0,1,2,3,1,0,0,0,1,2,1,0,0,0,0,0,1,2,1,0,0,0,0,0,0,1,2,3,1,0,0,0,1,1,1,2,2,3,3,6,5,7,7,4,6,8,8,10,12,13,10,8,3,1,2,2,2,4,3,1,0,1,1,0,0,0,1,2,3,3,2,1,0,1,2,1,0,0,0,0,0,0,0,1,2,3,1,0,0,0,1,2,3,2,1,0,0,1,2,3,2,1,0,1,2,1,0,1,2,2,1,0,1,2,1,0,1,2,3,3,2,1,2,3,2,2,1,1,1,1,0,1,3,3,2,1,1,2,3,3,3,2,1,0,1,2,3,4,6,6,4,4,4,4,4,4,4,7,5,2,0,1,2,2,0,1,2,3,3,3,3,4,4,4,4,6,6,4,4,4,3,3,3,3,4,4,4,6,6,6,5,6,6,6,4,3,3,2,2,2,1,2,3,3,3,3,1,2,1,0,1,2,1,1,3,3,2,1,0,0,0,0,0,0,0,0,0,0,0,0,0,0,0,0,0,0,0,1,2,2,3,2,1,0,0,0,0,0,0,0,1,2,1,1,2,3,2,1,2,3,2,1,0,0,0,0,0,0,0,1,1,0,0,0,0,0,1,2,3,3,3,2,2,3,3,2,1,2,2,2,2,1,2,2,1,1,1,1,4,1,1,1,0,0,0,0,0,0,0,1,2,3,3,2,1,2,3,2,1,1,2,3,2,5,2,5,4,3,2,1,1,0,1,1,0,1,2,2,3,3,1,3,-1,-1,-1
-1,-1,3,5,10,5,19,7,1,2,0,2,2,1,0,1,3,5,3,2,2,2,2,2,3,3,2,2,3,3,3,3,3,3,3,2,1,0,0,0,0,1,2,3,2,1,0,0,0,1,2,3,2,1,0,0,0,0,0,1,2,3,3,2,1,0,0,0,0,0,1,2,1,0,0,0,0,0,0,0,0,1,1,0,0,0,0,0,0,0,0,1,2,3,3,2,1,0,1,2,3,2,1,0,0,0,0,1,2,1,0,0,0,1,2,2,1,0,0,0,0,0,1,2,3,2,1,0,0,1,2,1,1,2,1,1,3,4,8,8,7,6,6,4,2,4,5,6,2,1,1,1,2,4,3,3,1,0,0,1,1,0,0,1,2,3,2,1,0,0,0,1,2,1,0,0,0,0,0,0,1,2,3,2,1,0,0,1,2,3,2,1,0,0,0,1,2,1,0,0,0,1,2,1,0,1,2,1,0,1,2,1,0,1,2,3,2,1,1,2,2,1,0,0,0,0,1,1,0,1,2,3,3,3,3,3,2,1,1,2,2,2,3,2,2,2,2,3,3,3,2,2,3,3,2,3,4,4,4,6,4,4,4,6,4,4,3,3,3,3,3,3,4,4,4,3,3,3,3,2,2,2,3,4,4,3,3,3,4,4,4,5,3,3,2,1,3,3,3,3,2,1,2,2,2,2,1,0,1,2,1,1,1,0,0,0,0,0,0,0,0,0,0,0,0,0,0,0,0,0,0,0,1,2,3,3,1,0,1,2,1,0,0,0,0,0,0,0,1,1,1,2,2,1,1,2,2,1,0,0,0,0,0,0,0,0,0,1,1,0,0,0,0,1,2,2,1,0,1,2,2,1,1,2,2,2,3,3,3,2,2,3,2,1,1,1,1,1,1,1,0,0,0,0,1,2,3,3,3,2,1,1,2,2,1,0,0,0,1,2,3,2,2,2,3,3,2,2,2,0,1,1,0,0,1,3,3,2,0,2,-1,-1,-1
-1,-1,3,2,18,7,9,4,3,3,3,3,2,1,2,3,3,2,2,3,1,1,1,2,1,1,2,3,3,3,3,3,3,2,1,0,0,0,0,1,2,3,3,2,1,0,0,0,0,1,2,1,0,0,0,0,0,0,0,1,2,1,0,0,0,0,0,0,0,1,2,2,1,0,0,0,0,0,0,0,0,1,1,0,0,0,0,0,0,0,0,1,2,1,0,0,0,1,2,2,1,0,0,0,0,0,1,2,2,0,0,1,2,3,2,1,0,0,0,0,0,1,2,2,1,0,0,1,2,3,2,1,1,2,1,0,1,3,6,4,5,2,2,3,1,6,7,7,6,3,2,4,3,4,3,2,0,0,1,2,1,0,0,1,2,1,0,0,0,0,1,2,1,0,0,0,0,0,0,1,2,2,1,0,0,0,0,1,2,1,0,0,0,0,1,2,1,0,0,0,1,2,1,0,1,2,1,0,0,1,2,1,0,1,2,1,0,0,1,2,1,0,1,1,1,0,1,1,0,0,0,1,2,4,4,3,3,3,3,2,5,3,2,2,2,2,2,2,1,0,1,2,1,0,0,1,3,4,6,7,6,4,4,6,5,3,3,3,2,1,0,1,3,2,2,3,2,2,2,3,3,2,2,3,4,4,3,3,3,3,2,1,2,3,3,3,1,1,2,3,3,3,3,3,2,1,0,1,2,1,0,1,1,0,0,0,0,0,0,0,0,0,0,0,0,0,0,0,0,0,0,0,1,3,3,2,1,0,0,1,2,1,0,0,0,0,0,0,1,1,1,2,1,0,1,2,1,0,1,1,1,0,0,0,0,0,0,1,1,0,0,0,0,1,3,3,1,0,0,1,2,1,0,1,2,1,2,2,2,2,2,2,3,1,2,2,2,2,1,2,1,0,1,2,3,3,3,2,1,0,0,0,1,1,0,1,1,1,0,0,1,1,2,3,3,2,1,2,2,0,1,1,1,1,0,1,1,1,1,3,-1,-1,-1
-1,-1,-1,12,18,10,12,6,7,4,3,3,2,1,3,2,4,3,3,5,2,2,3,3,1,1,2,1,0,0,0,0,0,0,0,0,0,0,0,2,4,3,1,0,0,0,0,0,0,1,1,0,0,0,0,0,0,0,0,1,1,0,0,0,0,0,0,0,1,2,2,2,1,0,0,0,0,0,0,0,0,1,1,0,0,0,0,0,0,0,0,1,1,0,0,0,0,1,2,1,0,0,0,0,1,2,3,3,2,2,3,3,3,2,1,0,0,0,0,0,0,1,2,1,0,0,0,1,3,2,1,0,1,2,3,2,1,2,1,0,0,1,1,1,1,2,6,4,3,1,3,6,6,4,4,1,0,0,1,2,1,0,1,2,1,0,0,0,0,0,1,2,1,0,0,0,0,0,0,1,2,1,0,0,0,0,1,2,1,0,0,0,0,1,2,2,1,0,0,1,2,2,1,0,1,2,1,0,1,2,1,0,0,1,1,0,0,1,2,1,0,1,2,3,1,0,1,1,0,0,0,1,3,3,3,3,3,4,4,6,6,3,3,2,2,2,2,3,1,0,1,2,1,0,0,1,3,3,2,4,3,3,2,1,0,0,0,0,0,0,1,2,1,1,2,1,1,1,1,1,1,1,2,2,3,3,3,2,1,0,1,2,3,3,3,2,1,0,0,0,1,2,3,2,1,0,0,1,2,1,0,1,1,0,0,0,0,0,0,0,0,0,0,0,0,0,0,0,0,0,0,1,2,1,0,0,0,0,0,1,2,2,1,0,0,0,0,1,2,1,1,1,0,1,2,1,0,1,2,3,1,0,0,0,0,0,0,1,1,0,0,0,1,2,1,1,1,0,0,0,1,1,0,0,1,2,1,0,0,1,2,2,2,3,2,3,3,3,3,3,2,1,2,3,2,2,3,2,1,0,0,1,2,1,0,1,3,2,1,1,2,3,2,2,1,2,3,1,2,0,1,1,3,2,1,1,1,4,1,6,-1,-1,-1
-1,-1,7,15,13,13,15,8,4,2,0,1,2,3,1,2,3,4,3,2,3,2,5,3,3,3,1,0,0,0,0,0,0,0,0,0,0,0,1,1,4,4,0,0,0,0,0,1,2,3,1,0,0,0,0,0,0,1,2,3,1,0,0,0,0,1,2,3,3,2,1,4,1,1,0,0,1,2,3,3,3,3,1,0,0,0,0,0,0,1,2,3,1,1,2,3,3,3,1,0,0,0,1,2,3,3,2,1,0,2,2,1,1,0,0,0,0,0,0,1,2,3,1,0,0,0,0,1,3,2,1,1,2,3,2,4,1,1,2,4,3,1,2,5,6,11,12,11,6,1,2,2,5,3,4,1,3,6,5,0,1,0,1,2,1,0,0,1,2,3,3,1,0,0,0,0,0,1,2,3,1,0,1,1,1,1,2,2,1,0,0,0,1,2,2,1,1,2,3,3,2,1,0,0,1,1,0,0,1,2,1,0,1,2,1,1,2,3,2,1,0,0,2,4,1,2,3,1,1,1,0,1,1,0,1,2,3,3,2,4,3,4,4,3,2,2,2,2,3,3,3,2,0,0,1,2,1,0,1,2,1,0,0,0,0,0,0,0,1,2,3,2,1,1,3,2,1,2,0,1,2,3,1,2,2,1,0,1,2,3,3,2,1,0,1,1,1,0,0,0,0,0,0,0,0,0,0,1,1,0,0,1,1,0,0,0,0,0,0,0,0,0,0,0,1,2,3,2,1,0,0,1,2,1,0,0,0,0,0,0,1,2,3,3,3,3,3,3,2,1,2,1,2,3,2,1,0,0,4,3,0,1,0,0,1,2,3,3,1,0,0,0,0,1,1,1,3,2,1,1,2,1,0,0,1,2,1,0,0,0,1,3,5,4,6,6,3,2,2,5,7,7,4,3,3,3,3,3,3,3,3,2,1,2,1,1,4,1,2,3,5,3,3,2,2,3,2,2,5,0,3,1,1,2,3,5,2,2,1,3,-1,-1,-1
-1,-1,-1,1,13,22,13,7,2,2,3,3,3,2,1,3,3,3,3,3,1,2,2,2,3,2,1,0,0,0,0,0,0,0,0,0,0,0,1,1,4,2,1,0,0,0,0,1,3,2,1,0,0,0,0,0,0,1,3,2,1,0,0,0,0,1,3,3,2,1,1,1,4,0,0,0,1,3,3,3,3,2,1,0,0,0,0,0,1,2,3,2,1,1,3,3,3,2,1,1,2,3,3,3,2,1,0,0,1,2,3,3,1,0,0,0,0,0,0,1,3,2,1,0,0,0,0,1,2,3,1,1,3,3,3,2,5,3,5,7,4,2,5,6,9,11,17,15,9,8,7,4,5,1,1,3,3,7,6,4,0,0,1,1,0,0,0,1,3,3,2,1,0,0,0,0,0,1,3,2,1,0,0,2,0,1,2,1,0,0,0,1,2,2,1,0,1,3,3,2,1,0,0,1,2,1,0,1,2,1,0,0,1,2,1,1,3,2,1,0,0,1,2,2,2,3,2,1,3,2,1,1,1,1,2,2,1,0,2,2,3,4,4,4,3,2,1,1,2,4,4,4,3,3,3,2,1,0,1,2,1,1,2,2,1,0,1,2,3,3,2,1,0,1,2,3,1,1,1,1,3,2,0,2,2,0,0,1,3,3,2,1,0,1,2,3,3,3,3,3,3,3,3,2,1,0,0,1,1,0,0,1,1,0,0,0,0,0,0,0,0,0,0,0,1,3,3,3,1,0,0,1,1,0,0,0,0,0,0,0,0,1,2,3,3,3,3,2,1,1,2,1,2,2,2,1,1,2,4,6,4,0,0,0,0,2,3,2,1,0,0,0,1,2,3,3,2,2,1,2,2,2,3,2,1,1,2,1,0,0,1,1,2,2,5,3,3,3,3,3,4,6,5,3,2,1,0,1,2,3,3,3,1,2,0,1,2,2,2,2,5,2,1,2,3,1,2,3,2,0,2,4,2,1,2,2,2,1,1,1,4,-1,-1
-1,-1,15,21,7,24,35,9,4,4,4,3,1,0,0,1,3,2,2,3,3,1,1,2,2,1,0,0,0,0,0,0,0,0,0,0,0,0,1,2,1,1,0,0,0,1,2,3,1,0,0,0,0,0,0,0,0,1,1,0,0,0,0,0,0,1,1,0,0,0,0,1,1,1,0,0,1,1,0,0,0,0,0,0,0,0,0,0,1,2,1,0,1,2,1,0,1,2,3,3,3,3,2,1,0,0,0,0,0,0,0,1,1,0,0,0,0,0,0,1,1,0,0,0,0,0,0,0,1,2,1,1,1,0,0,2,3,2,1,3,3,5,6,4,10,9,11,13,10,10,9,11,7,2,5,3,2,1,2,2,1,1,2,1,0,0,0,1,1,0,0,0,0,0,0,0,0,1,1,0,0,0,1,1,1,1,1,0,0,0,0,1,2,1,0,0,1,1,0,0,0,0,0,1,2,1,0,1,2,1,0,1,2,1,0,1,1,0,0,0,0,0,1,2,2,1,1,2,2,2,1,1,1,2,3,3,3,2,2,5,5,3,3,4,4,3,3,3,3,3,3,4,4,4,4,3,3,3,3,2,1,2,3,3,2,2,3,3,2,2,3,2,1,1,2,3,1,0,0,1,1,0,0,1,2,1,0,1,1,0,0,0,1,2,2,2,2,3,3,3,3,3,3,3,1,0,1,2,1,0,0,1,1,0,0,0,0,0,0,0,0,0,0,0,1,3,3,3,1,0,0,1,1,0,0,0,0,0,0,0,0,0,0,0,0,0,0,0,0,1,1,1,3,3,3,3,3,3,2,4,2,1,0,0,1,2,2,1,0,0,0,0,0,1,2,3,6,6,3,2,2,3,4,4,3,1,2,3,3,2,1,1,3,3,2,1,0,1,2,3,3,3,2,1,0,0,0,0,0,1,1,1,3,3,1,3,3,2,2,3,3,3,1,1,3,3,2,2,3,1,0,2,2,1,0,1,1,1,0,8,3,-1,-1
-1,-1,29,3,10,26,24,12,3,3,3,3,3,3,3,4,4,4,1,3,3,2,1,1,2,3,2,1,0,0,0,0,0,0,0,0,0,0,1,1,0,0,0,1,2,3,3,2,1,0,0,0,0,0,0,0,0,1,1,0,0,0,0,0,0,1,1,0,0,0,0,0,0,0,0,1,2,1,0,0,0,0,0,0,0,0,0,1,2,1,0,0,1,2,1,1,2,3,3,2,1,0,0,0,0,0,0,0,0,0,0,1,1,0,0,0,0,1,2,3,1,0,0,0,0,0,0,1,2,2,1,1,1,0,0,1,4,0,1,5,2,2,3,9,6,5,4,6,7,7,8,11,7,2,5,3,1,3,3,1,0,1,2,1,0,0,1,2,1,0,0,0,0,0,0,0,0,1,1,0,0,0,0,1,2,3,1,0,0,0,0,1,1,0,0,1,2,1,0,0,0,0,1,2,1,0,1,2,1,0,1,2,2,1,0,1,1,0,0,0,1,2,3,2,1,0,1,2,1,1,2,4,2,2,1,1,2,3,2,3,2,2,3,3,3,3,3,3,3,3,3,3,3,3,3,3,3,3,3,3,3,2,1,1,3,3,2,1,2,3,3,3,3,3,3,2,1,0,0,1,1,0,1,2,1,0,1,2,1,0,0,1,2,2,1,0,0,0,0,0,0,0,0,1,1,1,2,2,1,0,0,1,1,0,0,0,0,0,0,0,0,0,0,0,1,2,3,2,1,0,1,2,1,0,0,0,0,0,0,0,0,0,0,0,0,0,0,0,0,1,1,1,3,2,1,2,2,1,0,1,1,0,0,0,0,1,1,0,0,0,0,0,0,0,0,2,7,4,3,2,2,1,3,6,2,1,1,3,4,3,1,1,1,0,1,2,3,3,3,3,3,3,3,1,0,0,1,1,1,1,3,2,2,2,1,2,2,3,1,1,2,1,1,2,3,3,3,3,2,2,1,2,4,1,1,2,1,1,0,2,12,-1,-1
-1,-1,11,17,16,19,15,3,2,0,0,1,3,4,4,6,5,6,3,1,3,3,1,0,1,2,3,2,1,0,0,0,0,0,0,0,0,0,1,1,0,0,0,1,3,2,1,0,0,0,0,0,0,0,0,0,0,1,1,0,0,0,0,0,0,1,1,0,0,0,0,0,0,0,0,1,2,1,0,0,0,0,0,0,1,2,3,3,2,1,0,1,2,1,0,1,2,1,0,0,0,1,2,2,1,0,0,0,0,0,0,1,1,0,0,1,2,3,3,2,1,0,0,0,0,1,2,3,2,1,1,2,1,0,0,2,2,1,1,5,1,1,2,8,8,4,4,6,3,2,4,8,4,1,4,1,2,2,2,1,1,2,1,0,0,1,2,2,1,0,0,0,0,1,2,3,3,3,1,0,0,0,0,1,3,2,1,0,0,0,0,1,1,0,0,1,2,1,0,0,1,2,3,2,1,2,3,2,1,1,2,2,1,1,2,3,1,0,0,1,2,3,2,1,0,1,2,1,0,1,2,5,3,1,0,0,0,1,2,3,1,2,2,2,1,0,0,0,2,2,2,1,0,0,0,1,2,3,3,3,2,1,0,1,1,1,1,2,2,1,1,2,2,2,1,0,0,1,2,3,1,2,3,2,1,2,3,2,1,0,0,1,2,1,0,0,0,0,0,0,0,0,0,1,3,3,2,1,0,0,0,1,3,3,3,3,2,1,0,0,0,0,0,0,0,0,0,1,2,3,3,2,1,0,0,0,0,0,0,0,0,0,0,0,0,0,0,0,0,1,1,1,4,2,0,0,0,1,2,5,2,1,0,0,1,2,2,1,0,0,0,1,2,3,3,5,4,2,3,2,1,1,2,6,1,1,0,2,2,1,1,1,3,3,3,3,3,3,3,3,3,2,1,1,0,0,1,4,2,2,2,2,1,0,1,2,1,1,1,1,3,3,3,3,4,4,4,3,3,2,1,2,1,1,2,2,1,2,1,8,5,-1,-1
2,14,3,16,12,22,4,1,2,0,0,1,3,3,3,6,6,6,2,1,1,1,0,0,0,0,1,2,1,0,0,0,0,0,0,0,0,0,1,1,0,0,0,1,3,2,1,0,0,0,0,0,0,0,0,0,0,1,1,0,0,0,0,0,0,1,1,0,0,0,0,0,0,0,1,2,1,0,0,0,0,0,0,1,2,3,3,2,1,0,0,1,2,1,0,1,1,0,0,0,0,1,3,3,1,0,0,0,0,0,0,1,1,0,0,1,3,2,1,0,0,0,0,0,1,2,3,2,1,1,2,2,1,0,0,1,2,1,1,2,1,1,2,8,6,4,7,8,6,3,4,8,5,2,4,1,1,0,0,1,2,2,1,0,0,1,2,1,0,0,0,0,1,2,3,3,3,2,1,0,0,0,1,2,1,0,0,0,0,1,2,3,1,0,1,2,1,0,0,1,2,3,2,1,2,3,2,1,2,3,2,1,1,2,3,2,1,0,0,1,2,1,0,0,0,1,2,1,0,0,1,1,2,1,0,0,0,0,1,1,0,2,3,3,2,1,0,1,2,3,2,1,0,0,0,1,3,2,1,0,0,0,0,0,0,1,2,2,1,0,1,4,1,0,0,1,2,3,3,2,2,3,2,1,2,3,2,1,0,0,1,2,1,0,0,0,0,0,0,0,0,0,0,1,2,2,1,0,0,0,0,1,3,3,3,3,3,2,1,0,0,0,0,0,0,0,0,1,3,3,2,1,0,0,0,0,0,0,0,0,0,0,0,0,0,0,0,0,0,1,1,1,2,2,1,0,1,2,3,2,5,2,1,0,1,2,1,1,2,3,3,5,4,4,4,4,2,0,1,4,1,1,3,5,4,3,3,4,4,3,1,1,2,3,2,1,0,0,0,1,2,2,1,1,2,2,1,2,2,2,1,1,1,2,3,3,5,3,1,1,2,3,3,5,2,5,4,4,4,3,3,2,0,1,2,1,1,2,1,4,8,-1,-1
-1,-1,14,3,16,12,12,6,2,3,3,3,1,0,0,6,6,10,6,3,2,1,0,0,0,0,0,1,2,1,0,0,0,0,0,0,0,0,1,1,0,0,0,1,2,3,3,2,1,0,0,0,0,0,0,0,0,1,1,0,0,0,0,0,0,1,1,0,0,0,0,0,0,0,1,2,1,0,0,0,0,0,0,1,2,1,0,0,0,0,1,2,1,0,0,1,1,0,0,0,0,1,3,3,1,0,0,0,0,0,0,1,1,0,1,2,1,0,0,0,0,0,0,1,2,2,1,1,2,3,2,1,0,0,0,1,1,2,1,2,1,2,4,6,12,12,13,15,17,17,19,22,11,7,3,1,5,4,3,2,2,1,0,0,1,2,1,0,0,0,0,1,2,2,1,0,0,0,0,0,0,1,2,2,1,0,0,0,0,1,3,2,1,0,1,2,1,0,0,1,2,1,0,1,2,1,0,1,3,2,1,1,2,2,1,0,0,0,1,2,1,0,0,0,0,1,1,0,0,0,0,1,2,2,1,0,0,0,0,0,0,0,0,1,1,0,0,1,2,3,2,0,0,0,0,1,1,0,0,0,0,0,0,0,0,0,1,1,0,0,1,2,1,1,2,3,3,2,1,1,2,1,0,1,2,1,0,0,0,1,2,2,1,0,0,0,0,0,0,0,0,0,0,0,0,0,0,0,0,0,0,0,2,0,0,0,1,1,0,0,0,0,0,0,1,2,3,3,1,0,0,0,0,0,0,0,0,0,0,0,0,0,0,0,0,0,0,0,0,1,1,0,0,0,0,0,1,2,1,1,2,2,0,0,1,2,1,1,3,4,4,6,6,6,7,7,4,5,6,8,6,3,1,1,2,4,6,7,8,7,4,3,3,3,3,2,1,1,2,3,3,1,2,2,3,3,1,2,4,1,1,1,1,3,4,6,8,7,3,1,0,0,1,2,1,1,3,3,3,3,2,3,0,2,1,0,1,1,2,6,10,1,6
-1,1,12,6,6,16,14,9,3,4,3,2,2,3,3,10,11,10,8,6,5,1,1,1,1,0,0,1,2,2,1,0,0,0,0,0,0,0,1,2,1,1,0,0,0,1,2,3,1,0,0,0,0,0,0,0,0,1,1,0,0,0,0,0,0,1,1,0,0,0,0,0,0,0,1,1,0,0,1,1,1,0,0,1,1,0,0,0,0,0,1,2,1,0,0,1,1,0,0,0,0,1,2,2,1,0,0,0,0,0,0,1,1,0,1,2,1,0,1,1,1,0,0,1,2,1,0,1,3,2,1,0,0,0,0,1,2,1,1,5,2,5,3,7,14,16,17,18,22,25,26,25,15,9,3,2,4,8,4,4,1,0,0,0,1,2,1,0,0,0,0,1,2,1,0,0,0,0,0,0,0,1,2,1,0,0,0,0,0,1,1,0,0,0,1,1,0,0,1,2,1,0,1,2,1,0,0,1,1,0,0,1,2,1,0,0,0,1,2,2,1,0,0,0,0,1,1,0,0,0,0,0,1,2,1,0,0,0,0,0,0,0,1,2,2,1,0,1,3,3,2,1,0,0,1,2,1,0,0,0,0,0,0,0,0,1,2,1,0,0,1,4,1,2,3,2,1,0,0,1,1,0,1,2,1,0,0,0,1,2,2,1,0,0,0,0,0,0,0,0,0,0,0,0,0,0,0,0,0,0,0,1,1,1,0,1,2,2,1,0,0,0,0,0,1,3,3,2,1,0,0,0,0,0,0,0,0,0,0,0,0,0,0,0,0,0,0,0,0,1,1,0,0,0,0,0,1,1,1,2,2,2,1,0,1,2,1,2,2,3,4,6,6,7,8,8,6,6,8,8,8,4,3,2,3,4,7,8,9,8,6,6,7,7,4,3,0,2,3,3,2,1,3,3,2,1,1,2,1,1,4,1,2,2,3,4,7,8,4,3,1,1,2,2,1,0,1,1,2,3,3,2,0,2,1,0,1,1,2,4,1,3,12
-1,-1,8,7,16,16,6,3,7,3,3,2,4,2,3,5,9,4,4,4,2,1,1,4,2,2,1,0,1,1,0,0,0,0,0,0,0,0,1,1,2,1,2,3,3,3,3,3,1,0,0,0,0,0,0,0,0,1,2,1,0,0,0,1,2,3,1,0,0,0,0,1,2,3,3,1,0,0,0,2,0,0,0,1,3,2,1,0,0,1,2,1,0,0,0,1,5,5,2,1,0,0,0,0,0,0,0,0,0,1,2,3,1,0,1,2,1,0,0,2,2,3,3,3,1,0,0,1,1,0,0,0,1,2,3,3,1,0,1,4,3,8,12,10,11,16,15,18,19,19,22,18,9,6,3,3,2,5,2,4,1,0,0,1,2,1,0,0,0,0,0,1,1,0,0,0,0,1,2,3,3,3,1,0,0,0,0,0,1,2,1,0,0,1,2,1,0,1,2,2,1,1,1,2,1,2,3,3,1,0,0,1,3,2,1,0,0,0,1,1,0,0,0,0,0,1,1,0,0,0,0,0,0,1,3,2,1,0,0,0,0,0,0,1,1,0,0,1,1,0,0,0,0,1,2,2,1,0,0,0,0,1,2,3,3,3,3,1,2,3,3,2,3,2,1,0,0,0,0,1,1,0,0,1,1,0,0,1,2,2,1,0,0,0,0,1,2,3,3,2,1,0,0,0,0,0,0,0,0,0,0,0,0,0,0,1,2,1,0,0,0,0,0,1,2,1,0,0,0,0,0,0,0,0,0,0,0,0,0,1,2,3,3,3,3,3,3,2,1,1,3,1,1,3,3,3,3,1,1,4,1,1,1,0,2,2,3,6,6,12,14,17,13,8,5,6,8,8,6,4,6,7,8,11,8,5,6,4,5,4,3,4,7,7,3,1,1,2,1,4,2,1,6,6,5,1,2,2,2,1,2,1,4,2,1,2,3,5,2,1,0,1,2,1,1,2,3,6,4,4,4,5,3,5,2,1,1,0,1,4,4,6,2
2,4,3,1,6,8,2,2,1,1,2,5,2,3,1,5,3,5,6,2,3,4,1,1,4,2,0,0,0,1,1,0,0,0,0,0,0,1,2,2,1,1,3,3,3,3,3,2,1,0,0,0,0,0,0,0,0,1,1,0,0,0,0,1,3,2,1,0,0,0,0,1,3,3,2,1,0,0,1,1,1,0,0,1,2,2,0,0,0,1,2,1,0,0,0,1,6,3,3,1,0,0,0,0,0,0,0,0,0,1,3,2,1,0,1,2,1,0,1,1,2,3,3,2,1,0,0,1,1,0,0,0,1,3,3,2,1,0,1,1,1,6,9,11,7,5,3,7,7,4,1,1,1,1,1,1,0,1,1,2,1,0,0,1,2,1,0,0,0,0,0,1,1,0,0,0,0,1,3,3,3,2,1,0,0,0,0,1,2,2,1,0,0,1,2,1,0,1,2,1,2,1,2,1,2,3,3,2,1,0,0,1,2,3,1,0,0,1,2,1,0,0,0,0,0,1,1,0,0,0,0,0,0,1,2,3,2,1,0,0,0,0,1,2,1,0,0,1,1,0,0,0,0,1,2,1,0,0,0,0,0,1,3,3,3,3,2,1,3,3,3,3,3,3,3,3,3,3,3,3,1,0,1,2,1,0,0,1,2,1,0,0,0,0,0,1,3,3,3,2,0,1,2,2,1,0,0,0,0,0,0,0,0,0,1,2,1,0,0,0,0,0,0,1,2,1,0,0,0,0,0,0,0,0,0,0,0,0,0,1,3,3,3,3,3,3,3,3,2,1,2,3,2,3,3,3,3,1,1,2,2,2,4,1,3,5,4,10,10,11,16,17,12,8,4,5,5,5,4,3,6,8,8,8,11,4,1,4,4,2,2,2,1,2,1,0,1,3,3,6,4,3,5,6,1,1,2,2,3,3,5,4,2,1,2,2,2,5,3,3,1,1,3,3,3,3,5,6,6,3,3,2,3,2,2,0,1,1,2,5,4,4,10
3,2,1,1,1,1,0,0,1,0,0,1,1,1,1,4,2,1,2,1,2,3,1,1,2,2,1,0,1,1,0,0,0,0,0,0,0,1,2,1,0,1,1,0,0,0,0,0,0,0,0,0,0,0,0,0,1,2,2,1,0,0,0,1,1,0,0,0,0,0,0,1,1,0,0,0,0,0,0,0,0,0,0,1,2,2,1,0,0,1,1,0,0,0,0,1,2,1,1,1,0,0,0,0,0,0,0,0,0,1,1,0,0,0,1,2,1,0,1,2,1,0,0,0,0,0,0,1,1,0,0,0,1,1,0,0,0,0,0,1,2,3,2,1,0,0,1,1,0,0,1,2,1,0,0,0,0,1,2,2,1,1,2,3,1,0,0,1,2,3,3,3,1,0,0,0,0,1,1,0,0,0,0,0,0,0,0,1,2,1,0,1,2,3,1,0,1,2,1,1,1,1,2,2,2,1,0,0,0,0,0,0,0,1,1,0,0,0,1,1,0,0,0,0,0,1,1,0,0,0,0,0,0,0,0,1,2,3,3,2,1,0,0,1,1,0,0,1,1,0,0,0,0,1,1,0,0,0,0,0,0,1,1,0,0,0,1,2,1,0,0,1,3,3,3,3,3,3,3,2,1,0,0,1,1,0,0,1,1,0,1,2,2,1,0,1,3,3,3,2,1,2,3,3,1,0,0,0,0,0,0,0,0,0,1,2,1,0,0,0,0,0,0,1,1,0,0,1,2,2,1,0,0,0,0,0,0,0,1,2,1,0,0,0,0,0,0,1,2,2,1,2,2,2,0,2,3,1,1,3,4,6,8,6,1,1,4,10,4,2,2,3,3,4,4,3,4,3,3,0,3,6,4,6,3,2,3,4,4,2,1,0,1,2,1,1,3,4,4,6,6,4,6,4,3,3,1,5,6,4,6,6,3,3,3,2,4,4,1,1,0,1,3,4,4,3,3,2,3,2,1,1,0,1,2,2,3,0,3,4,3,3,5
1,1,3,3,3,1,0,0,1,0,0,1,1,2,1,1,1,1,4,1,3,3,0,5,2,0,0,1,2,2,1,1,1,0,0,0,0,1,1,0,0,1,1,0,0,0,0,0,0,0,0,0,0,0,0,1,2,2,1,0,0,0,0,1,1,0,0,0,0,0,0,1,1,0,0,0,0,0,0,0,0,0,0,1,2,1,0,0,0,1,1,0,0,0,0,1,2,1,1,1,0,0,0,0,0,0,0,0,0,1,1,0,0,1,2,2,1,1,2,2,1,0,0,0,0,0,1,2,1,0,0,0,1,1,0,0,0,1,2,3,3,2,1,0,0,1,2,1,0,1,2,2,1,0,0,0,0,0,1,2,3,3,3,2,1,0,0,1,3,3,3,2,1,0,0,1,2,3,1,0,0,0,0,0,0,0,1,2,1,0,0,1,3,2,1,1,2,2,1,1,2,3,1,2,1,0,0,0,0,0,0,0,0,1,1,0,0,0,1,1,0,0,0,0,0,1,1,0,0,0,0,0,0,0,0,0,1,2,3,3,1,0,0,1,1,0,0,1,1,0,0,0,0,1,1,0,0,0,0,0,0,1,1,0,0,0,1,2,1,0,1,2,1,0,0,0,0,0,0,0,0,0,0,1,1,0,0,1,1,0,1,3,3,1,0,1,2,3,2,1,0,1,1,1,1,0,0,0,0,0,0,1,2,3,3,1,0,0,0,0,0,0,1,2,1,0,0,1,3,3,1,0,0,0,0,0,0,1,2,2,1,0,0,0,0,0,0,0,1,2,3,2,1,2,1,2,5,3,7,8,8,9,9,7,3,2,3,6,4,3,3,5,4,2,5,7,4,0,1,0,1,5,3,4,3,3,4,4,4,3,1,0,1,1,1,3,6,7,8,8,6,4,6,4,4,3,3,3,6,3,4,6,4,2,1,2,5,2,0,3,2,1,2,3,3,3,3,3,2,2,3,3,1,0,1,3,2,1,2,4,4,4,6
2,2,2,3,2,1,0,0,1,0,0,1,1,2,1,0,1,1,2,1,2,5,0,6,5,3,3,3,2,1,2,3,1,0,0,0,0,1,1,0,0,1,1,0,0,0,0,0,0,0,0,0,0,0,0,1,2,1,0,0,0,0,0,1,1,0,0,0,0,0,0,1,1,0,0,0,0,0,0,0,0,0,1,2,1,0,0,0,0,1,1,0,0,0,0,1,2,1,1,1,0,0,0,0,0,0,0,0,0,1,1,0,0,1,2,1,0,1,2,1,0,0,0,0,1,2,3,2,1,0,0,0,1,1,0,1,2,3,3,2,1,0,0,0,0,1,2,1,0,1,2,1,0,0,0,0,0,0,0,1,2,2,1,0,0,1,2,3,1,0,0,0,0,0,0,1,3,2,1,0,0,0,0,0,1,2,3,2,1,0,0,1,1,0,1,2,2,1,0,1,3,2,2,1,0,0,0,0,0,0,0,0,0,1,1,0,0,0,1,1,0,0,0,0,0,1,1,0,0,0,0,0,0,0,0,0,0,0,0,1,1,0,0,1,1,0,0,1,1,0,0,0,0,1,1,0,0,0,0,1,2,3,1,0,0,1,2,1,0,1,2,2,1,0,0,0,0,0,0,0,0,0,0,1,1,0,0,1,1,0,1,3,3,1,0,0,0,0,0,0,1,2,3,3,1,0,0,0,0,0,0,1,3,3,2,1,0,0,0,1,2,3,3,2,1,0,0,1,3,3,1,0,0,0,0,1,2,3,2,1,0,0,0,0,0,0,0,0,0,1,2,2,2,1,1,2,6,7,10,10,10,12,9,7,6,5,1,2,3,2,1,3,2,1,1,5,8,3,5,2,0,4,1,1,3,3,3,4,4,3,3,1,1,3,3,4,6,8,8,7,6,4,6,4,5,5,2,2,2,1,2,2,3,4,2,5,2,1,2,4,4,3,2,2,1,0,0,1,0,1,2,3,2,1,1,1,0,1,3,4,4,4,7
2,2,1,1,2,3,2,1,1,0,1,2,1,1,1,0,1,1,5,3,1,2,1,6,1,2,2,2,1,1,2,2,2,1,0,0,1,2,1,0,0,1,1,0,0,0,0,0,0,0,0,0,0,0,0,1,1,0,0,0,0,0,1,2,1,0,0,0,0,0,0,1,1,0,0,0,0,0,0,0,1,2,3,2,1,0,0,0,0,1,1,0,0,0,0,1,2,1,1,1,0,0,0,0,0,0,0,0,0,1,1,0,0,1,2,1,0,1,2,1,0,0,0,1,2,3,2,1,0,0,0,0,1,1,0,1,3,2,1,0,0,1,2,2,2,2,1,0,1,2,1,0,0,0,0,0,0,1,2,2,1,0,0,1,2,3,3,2,1,0,0,0,0,0,0,1,1,0,0,0,0,1,2,3,3,3,2,1,0,0,0,1,1,1,2,2,1,1,2,3,1,1,2,1,0,0,0,0,0,0,0,0,0,1,1,0,0,0,1,1,0,0,0,0,0,1,1,0,0,0,0,0,0,0,0,0,0,0,0,1,1,0,0,1,1,0,0,1,1,0,0,0,0,1,1,0,0,0,1,2,3,2,1,0,0,1,2,1,0,1,2,1,0,0,0,0,0,0,0,0,0,0,0,1,1,0,0,1,2,1,1,2,2,1,1,1,1,0,0,0,0,1,2,2,1,0,0,0,1,2,3,3,1,0,0,0,0,0,0,1,3,3,2,1,0,0,0,1,2,2,1,0,0,0,1,2,3,2,1,0,0,0,0,0,0,0,0,0,0,0,0,1,2,1,2,6,7,8,9,12,8,7,8,8,8,10,7,4,0,1,2,2,1,1,2,7,7,4,2,2,1,1,1,4,1,0,0,2,1,3,3,3,1,2,3,3,2,4,3,3,3,3,2,3,2,1,2,4,2,1,0,1,0,2,3,1,4,3,3,3,5,3,4,3,2,0,0,1,1,2,5,4,6,2,5,3,3,5,2,3,3,3,6
2,2,1,2,3,3,3,1,1,0,1,2,1,1,2,2,2,1,3,2,0,4,0,3,5,3,3,3,2,1,1,1,2,1,0,0,1,2,1,0,0,1,1,0,0,0,0,0,0,0,0,0,0,0,0,1,1,0,0,0,0,1,2,2,1,0,0,0,0,0,0,1,1,0,0,0,0,0,0,1,2,3,2,1,0,0,0,0,0,1,1,0,0,0,0,1,2,1,1,1,0,0,0,0,0,0,0,0,0,1,1,0,0,1,2,2,1,1,2,2,1,0,0,1,2,1,0,0,0,0,0,0,1,1,0,1,1,0,0,1,2,3,3,3,3,2,1,0,1,2,1,0,0,0,0,0,1,2,3,3,1,1,2,3,3,2,1,0,0,0,0,0,0,1,2,3,1,0,0,0,0,1,3,3,2,1,0,0,0,0,0,2,2,3,2,1,1,2,3,2,1,1,1,0,0,0,0,0,0,0,0,0,0,1,1,0,0,0,1,1,0,0,0,0,0,1,1,0,0,0,0,0,0,0,0,0,1,2,3,3,1,0,0,1,1,0,0,1,1,0,0,0,0,1,1,0,0,1,2,2,1,0,0,0,1,2,1,0,1,2,1,0,0,0,0,0,0,0,0,0,0,0,0,1,1,0,0,1,2,2,1,0,0,1,2,3,1,0,0,0,0,0,0,0,0,0,1,2,3,3,3,2,1,0,0,0,0,0,0,1,1,0,0,0,0,0,0,0,0,0,0,1,2,3,3,2,1,0,0,0,0,0,0,0,0,0,0,0,0,0,1,2,2,1,2,4,6,6,6,6,3,3,5,6,9,12,9,6,1,1,2,1,0,1,2,6,3,2,1,2,1,0,1,2,1,0,1,1,1,1,3,4,1,3,3,3,3,4,6,3,1,0,1,1,2,1,3,1,1,1,1,3,2,2,1,1,2,2,1,0,1,3,3,5,5,3,3,3,0,3,3,6,6,6,8,6,4,6,4,2,0,2,6
2,2,1,2,1,0,1,2,1,0,1,1,1,1,2,2,2,1,3,3,1,2,1,5,2,3,3,3,3,1,3,2,1,2,1,0,1,1,0,0,0,1,1,0,0,0,0,0,0,0,0,0,0,0,0,1,1,0,0,0,1,2,2,1,0,0,0,0,0,0,0,1,1,0,0,0,0,0,0,1,2,1,0,0,0,0,0,0,0,1,1,0,0,0,0,1,2,1,1,1,0,0,0,0,0,0,0,0,0,1,1,0,0,0,1,2,1,0,1,2,1,0,1,2,1,0,0,0,0,0,0,0,1,1,0,1,1,0,0,1,3,2,1,1,1,1,0,0,1,1,0,0,0,0,0,1,2,2,1,1,2,2,3,2,1,0,0,1,1,1,0,0,1,2,3,2,1,0,0,0,0,1,1,0,0,0,0,0,0,0,0,2,5,2,1,0,1,2,1,0,0,1,1,0,0,0,1,1,1,0,0,0,0,1,1,0,0,0,1,1,0,0,0,0,0,1,1,0,0,0,0,0,0,0,0,1,2,3,3,2,1,0,0,1,1,0,0,1,1,0,0,0,0,1,1,0,0,1,2,1,0,0,0,1,2,2,1,0,1,2,1,0,0,0,0,0,0,0,0,0,0,0,0,1,1,0,0,0,1,2,2,1,1,2,2,2,3,3,3,3,3,3,3,2,1,0,1,3,2,1,2,2,1,0,0,0,0,0,0,1,1,0,0,0,0,0,0,0,1,2,3,3,3,3,2,1,0,0,0,0,0,0,0,0,0,0,0,0,0,1,2,3,2,1,1,1,1,2,3,3,1,0,1,4,9,12,9,6,2,1,2,1,0,1,1,6,4,2,2,1,1,0,1,2,1,1,2,3,2,0,2,8,5,3,4,4,4,6,7,5,6,2,1,2,2,1,1,0,1,0,1,2,3,2,2,1,0,0,0,0,0,1,2,3,3,3,3,2,1,1,2,3,6,6,7,7,6,4,5,4,1,3,3
6,7,7,2,1,0,1,2,1,2,3,1,1,0,1,4,1,1,6,5,2,2,1,2,5,3,2,4,3,3,5,5,1,2,6,7,7,2,1,2,3,3,1,0,3,6,6,5,3,3,3,3,3,3,3,3,1,0,0,0,0,2,3,2,1,0,0,1,2,3,3,3,1,0,0,0,0,1,2,3,1,0,0,0,0,0,0,0,0,1,2,1,0,0,1,2,7,3,3,1,0,0,0,0,0,0,0,0,0,1,1,0,0,0,1,2,1,1,2,3,1,0,0,2,2,1,0,0,1,2,3,3,2,1,0,1,1,1,0,1,3,2,1,0,0,0,0,1,2,1,0,0,0,0,0,0,1,1,1,2,5,2,1,0,0,0,0,0,2,0,0,1,2,2,1,0,0,0,0,0,1,2,1,0,0,0,0,1,2,3,3,5,2,0,0,1,2,1,0,0,0,1,1,0,0,0,0,2,0,0,0,0,0,1,1,0,0,0,1,2,1,0,0,1,2,3,1,0,0,0,0,1,1,1,0,0,1,1,0,0,0,0,0,1,1,0,0,1,3,2,1,0,0,1,2,1,0,1,1,0,0,0,0,1,2,1,0,0,1,2,1,0,0,0,0,0,0,0,0,0,0,0,0,1,3,3,3,2,1,1,2,3,3,2,1,1,2,3,3,3,3,3,3,4,1,3,3,1,0,0,2,2,0,0,0,0,0,0,0,1,1,0,0,0,0,0,0,1,2,3,3,2,1,0,0,0,0,0,0,0,0,0,0,0,1,2,3,3,3,3,2,1,1,1,1,2,2,2,4,2,1,1,2,3,6,8,6,4,5,0,1,2,4,5,0,5,6,3,2,2,7,6,3,2,1,3,4,4,3,1,2,6,6,2,4,2,2,2,4,6,3,3,2,2,3,3,3,0,3,5,6,3,1,1,1,1,1,1,1,2,3,2,1,3,3,1,0,0,0,0,1,4,2,4,9,10,3,5,2,5,2,2,6
3,6,6,5,1,0,0,1,1,3,2,1,1,1,2,4,4,6,5,7,2,4,6,3,2,5,4,4,3,4,6,5,1,1,6,7,6,5,3,5,7,2,2,1,3,7,6,3,3,3,3,3,3,3,3,2,1,0,0,0,1,2,3,2,0,0,1,2,3,3,3,2,2,1,0,0,1,2,3,2,1,0,0,0,0,0,0,0,0,1,1,0,0,0,1,5,4,5,2,1,0,0,0,0,0,0,0,0,0,1,1,0,0,0,1,2,1,1,3,2,1,0,1,2,3,1,0,0,1,3,3,3,2,2,0,2,2,1,0,1,2,3,1,0,0,0,0,1,2,1,0,0,0,0,0,1,2,1,0,4,1,1,0,0,0,0,0,1,1,1,1,2,2,1,0,0,0,0,0,1,2,2,1,0,0,0,1,2,3,3,3,2,2,0,0,1,2,1,0,0,0,1,1,0,0,0,1,1,1,0,0,0,0,1,3,2,1,0,1,2,1,0,0,1,3,2,1,0,0,0,0,0,2,0,0,1,2,1,0,0,0,0,0,1,1,0,0,1,2,3,1,0,0,1,1,0,0,1,1,0,0,0,0,1,1,0,0,0,1,2,1,0,0,0,0,0,0,0,0,0,0,0,0,1,2,3,3,3,1,0,1,2,2,1,0,0,0,0,0,0,0,0,0,2,5,3,2,1,0,1,2,2,1,0,0,0,0,0,0,1,1,0,0,0,0,0,0,1,2,1,0,0,0,0,0,0,0,0,0,0,0,0,0,0,1,3,3,3,3,2,1,1,2,2,1,3,3,1,2,1,2,1,2,3,4,4,2,2,4,3,3,2,7,2,1,4,3,5,1,4,8,8,7,7,7,6,6,4,2,2,2,2,5,4,3,3,3,3,3,2,1,1,2,3,3,3,2,0,2,3,6,3,1,1,2,1,2,0,1,3,3,3,2,2,2,2,0,2,3,3,5,10,12,6,7,5,9,1,7,12,12,8,5
2,0,0,1,2,2,1,1,2,1,2,3,5,5,4,4,4,6,3,1,2,5,6,2,3,4,5,2,1,4,8,6,2,1,1,1,2,3,4,4,3,2,3,2,0,3,2,1,0,0,0,0,0,0,0,0,0,0,0,0,1,2,3,2,1,0,1,2,1,0,0,1,4,1,0,0,1,2,1,0,0,0,0,0,0,1,2,2,2,2,2,1,0,1,2,1,0,0,0,0,0,0,0,0,0,0,0,0,0,1,1,0,0,0,1,1,0,1,1,0,0,0,0,1,2,1,0,0,1,1,0,0,1,2,0,2,2,1,0,0,0,1,1,0,0,0,0,1,1,0,0,0,0,0,0,0,1,2,1,1,1,0,0,0,0,0,0,0,0,0,1,2,1,0,0,0,0,0,0,1,2,1,0,0,0,0,1,2,1,0,0,1,1,0,0,1,1,0,0,0,0,1,1,0,0,0,0,0,0,0,0,0,0,1,2,3,1,0,0,1,1,0,0,1,1,0,0,0,0,0,0,1,1,1,0,1,2,1,0,0,0,0,0,1,1,0,0,0,0,1,1,0,0,1,2,1,0,1,1,0,0,0,0,1,1,0,0,0,0,1,1,0,0,0,0,0,0,0,0,0,0,0,0,0,0,0,0,1,1,0,0,0,0,0,0,1,2,3,3,3,3,3,3,5,2,0,0,0,0,0,0,0,0,0,0,0,1,2,3,3,1,0,0,0,0,0,0,1,1,0,0,0,0,0,0,1,2,2,1,0,0,0,0,0,1,1,0,0,0,0,0,1,4,2,1,1,1,1,1,1,2,2,2,3,3,2,2,5,4,5,5,2,5,1,1,5,1,0,2,5,7,6,8,7,7,6,6,5,3,3,1,2,2,3,3,5,3,3,3,3,2,1,1,3,4,5,3,3,2,1,3,2,2,2,1,2,2,1,2,1,0,1,2,3,0,2,0,3,4,4,4,9,21,10,3,15,17,7,4,2,14,-1,-1
2,1,1,1,2,3,3,1,1,1,3,3,4,4,5,3,1,3,3,3,1,1,3,2,4,2,1,1,2,5,6,7,3,1,2,0,3,3,3,2,2,2,3,2,0,1,1,1,1,0,0,0,0,0,0,0,0,0,1,2,3,3,2,1,1,2,3,1,0,0,0,1,4,1,0,0,1,2,1,0,0,0,0,0,1,2,3,3,3,2,1,1,2,3,2,1,0,0,0,0,0,0,0,0,0,0,0,1,2,3,1,0,0,1,2,1,1,2,1,0,0,0,0,1,2,1,0,0,1,1,0,0,1,2,0,2,2,1,0,0,0,1,1,0,0,0,1,2,1,0,0,0,0,0,0,0,1,2,1,0,0,0,0,0,0,0,0,1,2,3,3,1,0,0,0,0,0,0,1,2,1,0,0,0,1,2,3,1,0,0,0,1,1,0,0,1,1,0,0,0,0,1,1,0,0,0,0,1,1,1,0,0,0,0,0,1,1,0,0,1,1,0,0,1,1,0,0,0,0,0,0,0,0,0,0,1,2,1,0,0,0,0,1,2,1,0,0,0,1,2,1,0,1,2,1,0,0,1,1,0,0,0,0,1,1,0,0,0,0,1,1,0,0,0,0,0,0,0,0,0,0,0,0,0,0,0,0,1,1,0,0,0,0,0,0,1,3,3,3,3,3,3,3,2,2,0,0,0,0,0,0,0,0,0,0,0,1,3,3,2,2,2,1,0,0,0,0,1,1,0,0,0,0,0,0,1,3,3,2,1,0,0,1,1,1,1,0,0,0,0,0,1,2,2,2,6,5,1,0,1,1,2,3,3,3,3,3,2,2,4,2,1,2,1,1,4,3,2,2,3,5,2,4,1,2,2,5,2,2,3,3,2,2,3,4,3,3,3,3,2,1,1,3,4,6,7,4,3,4,4,4,4,7,4,3,3,3,3,2,1,0,0,1,2,2,3,1,1,3,3,2,2,9,17,13,7,24,5,6,-1,-1,-1,-1
5,2,3,2,1,1,2,1,2,1,1,1,2,2,1,0,2,3,3,2,2,0,2,2,1,1,0,0,2,3,3,4,1,2,2,1,2,1,0,0,0,1,2,2,1,0,0,4,2,3,3,3,3,3,3,3,3,3,3,3,2,1,0,1,2,3,2,1,0,0,0,1,1,1,0,0,1,2,1,0,0,0,0,1,2,2,1,1,1,1,0,1,3,2,1,0,0,0,0,1,2,3,3,3,3,3,3,3,3,2,1,1,2,3,2,1,1,2,1,0,0,0,1,2,1,0,0,0,1,1,0,0,1,2,0,2,2,1,0,0,0,1,1,0,0,0,1,2,1,0,1,1,1,0,0,0,0,1,1,0,0,0,0,0,0,0,0,1,3,3,2,1,0,0,0,0,1,2,3,2,1,0,0,1,2,3,2,1,0,0,0,1,1,0,0,1,1,0,0,0,0,1,1,0,0,0,0,0,2,0,0,0,0,0,0,1,1,0,0,1,1,0,0,1,1,0,0,0,0,0,0,0,0,1,2,3,1,0,0,0,0,0,1,2,1,0,1,2,3,2,1,0,1,2,1,0,0,1,1,0,0,0,0,1,1,0,0,0,0,1,1,0,0,0,0,0,0,0,0,0,0,0,0,0,0,0,0,1,1,0,0,0,0,0,1,2,1,0,0,0,0,0,0,1,1,0,0,0,0,0,0,0,0,0,0,1,2,1,0,1,4,2,0,0,0,0,0,1,1,0,0,0,0,0,0,1,1,1,2,1,0,0,0,2,1,1,0,0,0,0,0,1,3,2,4,7,6,2,2,2,2,2,4,4,4,2,1,2,6,7,5,1,1,1,2,6,2,2,1,2,4,6,7,6,4,3,4,4,3,5,3,2,2,3,1,2,1,0,0,0,1,3,4,6,6,7,4,6,6,7,6,6,5,6,4,3,2,2,1,0,0,1,2,3,3,2,0,2,3,2,3,5,2,4,10,2,15,11,13,-1,-1,-1,-1
6,2,2,2,0,2,2,3,3,1,1,2,1,0,0,1,3,6,2,2,4,6,7,6,1,1,2,3,4,4,4,3,1,3,3,5,3,5,3,3,2,0,2,3,2,1,1,2,5,3,3,3,3,3,3,3,3,3,2,1,0,0,1,2,2,1,0,0,0,0,0,0,0,0,0,0,0,1,1,0,0,0,0,1,2,1,0,0,0,1,2,3,1,0,1,1,1,1,2,3,3,3,3,3,3,3,3,2,2,3,3,3,3,2,1,0,1,1,0,0,0,0,1,2,1,0,1,1,2,1,0,0,1,2,0,2,2,1,0,0,0,1,1,0,0,1,2,1,0,1,2,3,3,2,1,0,0,1,1,0,0,0,0,0,0,0,0,1,1,0,0,0,0,0,0,1,2,3,2,1,0,0,0,1,2,1,0,0,0,0,0,1,1,0,0,1,1,0,0,0,0,1,1,0,0,0,0,1,1,1,0,0,1,2,3,3,1,0,0,1,1,0,0,1,1,0,0,0,0,0,0,1,2,3,3,2,1,0,0,0,0,1,2,1,0,1,2,3,2,1,0,1,2,1,0,0,0,1,1,0,0,0,0,1,1,0,0,0,0,1,1,0,0,0,0,0,0,0,0,1,2,3,2,1,0,0,0,1,1,0,0,0,0,1,2,2,1,0,0,0,0,0,0,1,3,2,1,0,0,1,2,2,2,2,3,3,2,1,1,2,5,2,1,0,1,2,3,3,1,0,0,0,0,0,0,1,1,0,1,2,1,0,1,1,1,1,0,0,0,0,0,1,2,1,1,5,3,3,3,3,5,3,4,4,3,0,2,6,10,6,3,1,2,2,5,6,6,6,2,0,2,3,6,5,5,3,2,2,1,3,3,2,4,2,1,3,2,3,3,5,6,6,4,5,3,5,4,6,6,6,4,4,4,3,3,3,1,0,0,0,0,1,3,2,1,2,2,3,2,5,4,7,14,9,15,8,8,4,-1,-1,-1,-1,-1
7,3,3,2,1,2,2,2,2,3,3,3,3,1,0,1,5,5,2,2,6,8,7,6,2,2,4,2,2,2,4,6,4,4,4,4,4,4,4,4,3,0,2,2,2,1,1,2,1,0,0,0,0,0,0,0,0,0,0,0,1,2,3,2,1,0,0,0,0,0,1,2,3,3,3,3,3,3,1,1,2,2,3,3,1,0,0,0,1,2,3,2,1,1,2,3,3,3,3,2,1,2,3,3,3,3,3,3,3,3,3,2,1,0,0,0,1,1,0,0,0,1,2,1,0,0,1,4,2,1,0,0,1,2,0,2,2,1,0,0,0,1,1,0,0,1,2,1,0,1,2,2,2,3,3,3,3,3,1,0,0,0,0,0,0,0,0,1,1,0,0,0,0,0,0,1,2,1,0,0,0,0,0,1,1,0,0,0,0,0,1,2,1,0,0,1,1,0,0,0,0,1,1,0,0,0,0,0,0,0,1,2,3,3,3,2,1,0,0,1,1,0,0,1,1,0,0,0,0,0,0,1,3,2,1,0,0,0,0,0,0,1,2,1,0,1,2,1,0,0,0,1,2,1,0,0,0,1,1,0,0,0,0,1,1,0,0,0,0,1,1,0,0,0,0,0,0,0,0,1,3,3,3,1,0,0,0,1,2,1,0,0,1,2,2,1,0,0,0,0,0,0,0,1,2,3,1,0,0,1,3,3,3,3,3,2,2,3,3,5,2,1,0,1,2,3,3,2,1,0,0,0,0,0,0,1,1,0,1,2,1,0,0,0,1,1,0,0,0,0,0,1,2,2,2,2,2,1,4,5,3,2,3,3,2,1,3,3,8,1,2,0,2,2,2,5,7,3,3,1,0,1,3,2,4,2,3,3,3,2,1,3,6,3,4,4,6,4,4,6,7,4,3,1,0,1,3,3,1,1,2,3,3,1,0,1,1,0,0,0,0,1,2,1,1,3,4,2,1,0,2,9,2,5,15,12,16,6,-1,-1,-1,-1,-1
3,3,3,5,1,1,2,3,5,4,4,5,2,2,1,1,5,4,4,3,3,4,1,1,3,4,7,6,6,8,10,8,6,2,3,2,3,4,4,4,2,1,1,0,1,2,2,2,1,0,0,0,0,0,0,0,0,0,0,1,2,3,2,1,0,0,0,0,0,1,2,3,4,3,3,3,3,3,3,3,3,3,3,2,1,0,0,0,1,2,1,0,1,2,2,2,2,2,1,1,2,3,3,3,3,3,3,2,1,2,3,2,1,0,0,1,2,1,0,0,0,1,2,1,0,1,2,2,2,1,0,0,1,2,0,2,2,1,0,0,0,1,1,0,1,2,1,0,0,1,1,1,1,1,2,3,3,2,1,0,0,0,0,0,0,0,0,1,1,0,0,0,0,0,0,1,1,0,0,0,0,0,0,1,1,0,0,0,0,1,2,2,1,0,0,1,1,0,0,0,0,1,1,0,0,0,0,1,2,3,3,3,2,1,0,0,0,0,0,1,1,0,0,1,1,0,0,0,0,0,0,1,1,0,0,0,0,0,0,0,1,2,1,0,0,1,1,0,0,0,0,1,1,0,0,0,0,1,1,0,0,0,0,1,1,0,0,0,0,1,1,1,2,3,3,3,3,3,3,3,1,0,1,2,1,0,0,1,2,2,1,0,1,2,1,0,0,0,0,0,0,0,0,0,0,1,1,0,0,1,1,1,3,3,3,3,3,3,2,2,1,0,1,2,2,1,2,2,1,0,0,0,0,0,0,1,1,0,0,1,3,3,3,2,2,1,0,0,0,0,0,1,5,2,3,2,2,1,4,2,2,2,1,1,4,0,2,2,2,2,3,3,5,1,1,5,5,1,2,1,0,1,2,3,7,4,4,6,3,1,1,2,5,4,4,4,4,4,4,6,6,3,1,0,0,1,2,3,2,0,0,1,2,1,1,2,1,0,1,1,1,1,2,2,3,2,5,3,1,5,4,3,13,16,9,4,7,-1,-1,-1,-1,-1,-1
4,1,1,4,1,2,4,6,6,3,2,1,1,2,0,2,2,3,3,3,1,1,5,11,13,12,8,7,4,7,10,7,2,1,1,2,2,3,2,5,4,0,3,3,3,1,2,1,1,1,0,0,0,0,0,1,2,3,3,2,2,1,2,3,3,3,3,3,3,3,2,1,2,0,0,1,2,3,2,2,1,1,1,2,3,3,3,2,1,2,1,0,1,2,1,0,0,1,2,3,2,1,0,0,0,0,0,0,0,2,2,2,2,3,3,3,2,1,0,1,2,3,1,0,0,0,2,2,2,1,0,0,1,5,2,2,4,1,0,0,1,2,1,0,0,1,1,0,1,2,1,0,2,0,0,0,0,0,0,0,0,0,0,1,2,3,3,3,1,0,0,0,0,1,2,3,1,0,0,0,0,1,2,3,1,0,1,1,1,0,1,1,0,0,1,2,1,0,0,0,0,1,3,2,1,0,0,1,3,3,2,1,0,0,0,0,0,0,1,2,1,0,1,2,2,0,0,0,0,0,0,2,2,2,1,0,1,2,3,3,3,2,1,0,0,1,1,0,0,0,1,2,1,0,0,1,2,3,1,0,0,0,0,1,1,0,0,0,0,1,3,3,3,3,3,3,3,3,3,2,1,0,1,1,0,0,0,0,1,2,2,1,1,3,2,1,0,0,0,0,0,0,0,0,0,1,1,1,2,3,1,2,3,3,3,2,1,0,0,1,3,3,3,2,1,0,2,2,2,3,3,3,3,3,5,5,1,0,0,1,2,4,4,2,3,1,0,1,1,0,3,3,2,2,2,8,7,2,7,5,2,1,2,2,2,2,4,4,1,4,6,2,1,1,1,6,1,3,6,6,6,3,1,1,2,4,2,2,3,3,3,1,1,1,2,2,1,2,2,1,4,2,0,0,0,1,3,5,2,3,3,2,1,1,0,1,1,1,2,3,2,0,3,2,5,9,12,8,2,6,4,13,7,7,14,10,-1,-1,-1,-1,-1,-1,-1
3,5,6,6,3,3,4,7,4,3,2,1,2,1,1,4,5,0,1,3,2,3,6,9,16,12,9,7,4,3,1,2,5,5,3,2,1,1,3,2,5,3,4,4,4,3,4,4,5,0,0,1,2,3,3,6,6,4,3,4,1,0,2,2,3,3,3,3,3,2,1,1,1,1,2,3,2,1,0,0,0,1,2,3,3,3,3,3,3,2,1,2,3,1,0,0,0,1,3,2,1,0,0,0,0,0,0,0,1,2,3,2,2,3,3,2,1,0,0,1,3,2,1,0,0,1,2,2,1,1,0,0,1,2,3,2,1,1,0,0,1,2,1,0,1,1,0,0,1,2,1,1,1,1,0,0,0,0,0,0,0,0,0,1,3,3,3,2,1,0,0,0,0,1,3,2,1,0,0,0,0,1,3,2,1,0,0,2,0,1,2,1,0,0,1,2,1,0,0,0,0,1,2,3,1,0,0,1,1,0,0,0,0,0,0,0,0,0,1,2,1,0,1,5,2,0,0,0,0,0,0,1,4,2,0,0,1,3,3,3,2,1,0,0,0,1,1,1,2,3,3,2,1,0,0,1,3,2,1,0,0,0,0,1,1,0,0,0,0,1,2,2,1,0,0,0,0,0,0,0,0,0,1,2,1,0,0,0,0,1,1,0,1,2,2,0,0,0,0,0,0,0,0,0,0,1,1,0,2,2,1,1,1,0,0,0,0,0,0,1,2,3,2,1,0,1,2,1,2,3,3,3,3,3,4,6,2,2,2,2,3,4,3,5,5,1,0,0,2,1,3,7,8,4,2,7,5,1,6,6,2,1,4,6,6,2,3,6,3,2,3,3,1,1,1,3,5,5,5,8,5,4,3,3,3,3,2,1,2,2,2,1,1,5,4,2,2,3,4,5,2,2,1,0,0,1,3,5,5,2,2,1,1,0,1,2,2,3,2,2,2,3,3,6,5,10,9,5,5,14,2,5,19,5,12,-1,-1,-1,-1,-1,-1,-1,-1
8,7,7,6,4,4,3,3,4,4,4,3,2,2,3,5,2,1,1,4,1,2,6,7,7,4,6,8,6,4,4,6,7,7,5,4,3,1,1,2,4,4,4,4,4,4,3,6,6,3,3,3,3,3,3,3,9,3,1,3,4,2,2,3,1,0,0,0,0,0,0,1,2,3,3,2,1,0,0,1,2,3,2,1,0,0,0,1,2,2,1,2,2,1,0,0,0,1,1,0,0,0,0,1,2,3,3,3,3,3,3,3,1,0,0,0,0,1,2,3,1,0,0,0,0,0,0,1,1,0,0,0,0,1,1,0,0,0,0,1,2,1,0,1,2,2,1,0,1,2,1,1,2,2,1,0,0,0,0,0,0,0,0,1,1,0,0,0,0,0,0,0,0,1,1,0,0,0,0,0,0,1,1,0,0,0,1,1,1,0,1,1,0,0,1,1,0,0,0,0,0,0,1,2,1,0,0,1,1,0,0,0,0,0,0,0,0,0,1,1,0,0,1,5,2,0,0,0,0,0,0,2,2,2,1,0,1,2,1,0,0,0,0,0,1,2,1,1,3,3,2,1,0,0,0,1,1,0,0,0,0,0,0,1,1,0,0,0,0,0,0,0,0,0,0,0,0,0,0,0,0,0,1,1,0,0,1,2,3,3,2,1,1,2,2,1,0,0,0,0,0,0,0,0,0,1,2,1,2,1,1,2,1,0,0,0,0,0,0,0,0,0,1,2,3,3,3,2,1,0,0,0,0,1,2,2,2,3,3,3,3,6,3,4,4,1,2,3,4,5,3,6,7,4,2,1,3,2,1,1,3,1,6,9,9,6,2,6,6,3,3,0,2,3,0,4,1,1,3,4,6,4,6,8,2,0,0,1,1,2,3,2,2,2,2,0,2,3,3,1,1,0,0,0,0,1,2,1,5,4,3,2,1,2,3,2,5,2,2,5,4,4,4,10,11,8,1,20,11,9,8,13,11,8,-1,-1,-1,-1,-1,-1,-1,-1,-1
7,7,6,6,4,6,6,4,3,3,3,2,1,3,3,2,2,1,2,3,2,2,4,7,7,7,8,9,8,6,4,6,6,6,7,4,6,6,8,6,6,4,4,4,3,3,3,3,3,3,3,2,1,0,1,4,4,0,0,2,4,3,3,3,1,0,0,0,0,0,0,1,3,2,1,0,0,1,2,3,3,2,1,0,0,1,2,2,1,0,1,2,3,2,1,0,0,1,1,0,0,0,0,1,3,3,3,3,3,3,3,2,1,0,0,1,2,3,3,2,1,0,0,0,0,0,0,1,1,0,0,0,0,1,1,0,0,0,0,1,2,1,0,1,2,1,0,0,1,2,2,2,3,3,3,3,3,3,2,1,0,0,0,1,1,0,0,0,0,0,0,0,0,1,1,0,0,0,0,0,1,2,1,0,0,0,0,0,0,1,2,1,0,0,1,1,0,0,0,0,0,0,1,2,1,0,1,2,1,0,0,0,0,0,0,0,0,1,2,1,0,0,1,2,2,0,0,0,0,0,0,1,1,0,0,0,1,2,2,1,0,0,0,0,1,2,1,1,1,0,0,0,1,2,3,3,1,0,0,0,0,0,0,1,1,0,0,0,0,0,0,0,0,0,0,0,0,0,0,0,0,1,2,1,0,1,2,3,3,2,1,1,2,2,1,0,0,0,0,0,0,0,0,0,0,1,1,0,1,2,1,1,3,2,1,0,0,0,0,1,2,3,3,3,3,3,2,1,1,1,0,0,1,2,1,1,5,2,2,3,3,6,3,2,3,7,7,8,8,9,8,8,9,7,3,1,2,3,1,1,5,2,6,8,10,7,1,6,4,3,2,1,2,2,1,2,2,1,1,1,1,1,2,8,2,1,0,1,1,3,2,2,2,5,4,2,2,1,2,1,1,0,0,0,0,0,0,1,3,3,1,1,1,3,2,0,5,7,8,11,8,4,5,2,19,22,22,9,2,15,10,20,5,-1,-1,-1,-1,-1,-1,-1,-1,-1,-1
4,4,4,6,4,4,5,3,3,2,1,0,1,1,0,2,2,6,4,4,3,3,2,4,5,7,7,7,7,6,4,2,1,2,2,3,6,8,8,8,6,4,3,3,2,1,2,5,5,2,1,0,0,1,2,1,4,0,2,4,4,3,2,3,1,0,0,0,1,2,3,3,1,0,1,1,1,0,2,2,1,0,0,0,0,1,3,3,1,0,0,1,2,3,1,0,0,1,1,0,0,0,0,1,1,0,0,0,0,0,0,0,0,1,2,3,3,2,1,1,2,3,3,3,3,3,3,3,1,0,0,0,0,1,1,0,0,0,1,2,1,0,0,1,1,0,0,0,0,1,2,3,1,1,2,3,3,3,3,1,0,0,0,1,1,0,0,0,0,0,0,1,2,3,1,0,0,0,1,2,3,2,1,0,0,0,0,0,1,2,2,1,0,0,1,1,0,0,0,0,0,1,2,1,0,1,2,2,1,0,0,0,0,0,0,1,2,3,2,1,0,0,0,1,1,0,0,0,0,0,0,1,1,0,0,0,0,1,2,1,0,0,1,2,3,1,0,1,1,0,0,0,1,3,3,2,1,0,0,0,0,0,0,1,3,2,1,0,0,0,0,0,0,0,0,0,0,0,0,0,0,1,2,1,0,1,2,1,0,0,0,1,2,1,0,0,0,0,0,0,0,0,0,1,2,3,2,1,1,2,1,1,2,3,2,1,0,1,2,3,3,3,3,3,3,3,3,3,3,3,2,2,2,2,1,2,3,5,3,3,2,4,1,3,5,9,10,9,9,9,8,11,8,8,3,1,0,1,1,2,6,2,2,2,5,2,2,4,2,3,1,2,5,3,1,1,5,5,2,1,1,3,4,9,6,1,0,1,0,1,1,2,5,4,3,3,2,1,2,4,1,0,0,0,0,0,0,0,4,2,1,2,0,3,3,3,6,7,8,10,7,3,1,7,7,9,22,16,16,11,1,25,1,-1,-1,-1,-1,-1,-1,-1,-1,-1,-1
3,2,3,2,3,2,2,3,3,3,3,3,5,2,5,8,7,7,6,6,4,4,4,4,5,3,1,1,3,2,3,2,2,3,0,3,4,6,7,7,4,3,3,2,2,3,3,3,6,4,5,3,3,3,2,1,1,1,4,7,8,7,5,5,2,3,2,1,0,2,3,2,2,3,3,3,3,2,2,2,1,0,1,2,2,1,1,1,3,3,2,1,1,2,1,1,1,1,1,0,0,0,0,1,1,0,0,0,0,0,0,1,2,3,3,2,1,0,0,1,3,3,3,3,3,3,3,2,1,0,0,0,0,1,1,0,0,0,1,2,1,0,1,2,1,0,0,0,0,0,1,1,1,0,0,0,1,2,3,1,0,0,0,1,1,0,0,0,0,0,1,2,3,2,1,0,0,1,2,3,2,1,0,0,0,0,1,2,3,2,1,0,0,0,1,1,0,0,0,0,0,1,2,1,0,1,2,1,0,0,0,0,0,0,0,1,3,2,1,0,0,0,1,2,1,0,0,0,0,0,0,1,1,0,0,0,0,1,2,1,0,0,1,3,2,1,0,1,1,0,0,0,1,3,3,2,1,0,0,0,0,0,0,1,2,3,2,1,0,0,0,0,0,0,0,0,0,0,0,0,1,2,1,0,1,2,1,0,0,0,0,1,2,1,0,0,0,0,0,1,2,3,3,3,3,2,1,1,2,3,1,0,0,1,2,1,1,2,3,2,1,2,3,4,4,4,3,2,2,2,3,3,2,1,2,3,2,1,1,1,1,4,3,7,11,8,9,8,8,7,6,7,6,5,3,5,3,6,4,6,10,6,0,3,6,2,2,3,3,1,2,3,3,2,1,2,6,7,4,5,2,1,3,6,4,1,0,1,1,2,1,2,2,2,2,1,3,2,2,2,2,2,1,0,0,0,0,1,3,3,2,2,0,2,3,3,2,2,2,5,5,6,7,3,5,15,16,15,21,13,18,14,-1,-1,-1,-1,-1,-1,-1,-1,-1,-1,-1
3,2,2,5,3,5,4,4,4,7,8,8,9,7,9,8,8,5,3,5,3,4,4,6,8,7,5,1,2,1,2,2,5,2,1,1,2,3,5,7,6,3,4,4,4,3,3,5,4,6,6,4,4,4,4,4,6,6,6,8,8,8,10,13,8,7,4,5,2,2,2,2,3,3,3,3,4,4,3,2,1,1,2,3,3,1,2,1,2,3,2,0,0,1,1,2,0,1,1,0,0,0,0,1,1,0,0,0,0,0,0,1,3,2,1,0,0,1,2,3,1,0,0,0,0,0,0,0,0,0,0,0,0,1,1,0,0,1,2,1,0,0,1,2,1,0,0,0,0,0,0,0,0,0,0,0,1,3,2,1,0,0,0,1,1,0,0,0,0,1,2,2,1,0,0,0,0,1,2,1,0,0,0,0,0,0,1,3,2,1,0,0,0,0,1,1,0,0,0,0,1,2,1,0,1,2,1,0,0,0,0,0,0,0,0,1,1,0,0,0,0,0,1,2,1,0,0,0,0,0,0,1,1,0,0,0,1,2,2,1,0,1,2,1,0,0,0,1,1,0,0,0,1,2,3,3,1,0,0,0,0,0,0,0,0,1,2,2,1,0,0,0,0,0,0,0,0,0,0,1,2,2,1,0,1,2,1,1,2,2,1,1,2,2,1,0,0,1,2,3,3,3,4,4,3,3,3,3,3,2,1,1,1,1,1,1,1,2,1,1,2,2,2,3,3,3,2,1,0,0,1,1,1,1,2,2,2,1,0,0,1,6,4,6,10,4,6,4,3,3,2,4,1,1,2,4,6,8,8,7,8,7,3,2,1,1,1,3,3,3,2,3,3,5,3,1,5,5,5,2,2,0,1,2,2,1,1,3,3,2,1,2,1,0,1,4,3,6,3,2,3,3,3,3,2,1,0,0,1,1,2,1,0,0,0,1,2,4,6,6,4,7,6,2,7,10,12,11,9,12,9,-1,-1,-1,-1,-1,-1,-1,-1,-1,-1,-1,-1
4,1,3,4,4,6,6,6,7,7,8,8,7,9,9,8,4,2,1,1,1,3,3,4,7,8,6,3,2,2,2,2,1,0,0,0,1,2,3,4,5,4,4,4,3,3,3,3,4,6,4,3,3,4,4,6,7,7,4,5,4,5,10,11,9,8,6,6,4,3,2,5,2,3,3,4,4,5,2,2,2,1,2,1,1,2,2,2,3,6,6,6,6,6,6,4,1,1,1,0,0,0,0,1,1,0,0,0,0,0,0,1,1,0,0,0,1,2,3,2,1,0,0,0,0,0,0,0,0,0,0,0,0,1,1,0,0,1,2,1,0,1,2,1,0,0,0,0,0,0,0,0,0,0,0,1,2,1,0,0,0,0,0,1,1,0,0,0,0,1,2,1,0,0,0,0,0,1,1,0,0,0,0,0,0,1,2,1,0,0,1,1,1,0,1,1,0,0,0,1,2,2,1,0,1,2,1,0,0,0,0,0,0,0,0,1,1,0,0,0,0,1,2,1,0,0,0,0,0,0,0,2,2,2,1,0,1,2,1,0,0,1,2,1,0,0,0,1,3,3,2,1,0,0,0,1,1,0,0,0,0,0,0,0,0,0,1,2,1,0,0,0,0,0,0,0,0,0,0,1,2,1,0,0,1,1,0,1,3,3,2,1,1,2,2,1,1,2,3,2,1,2,3,3,3,3,3,2,1,0,0,1,3,2,1,1,1,1,1,2,2,1,2,1,1,1,2,1,0,0,0,0,0,1,1,1,2,1,1,2,3,7,4,6,6,2,5,3,1,0,1,1,1,1,2,3,4,4,6,4,7,6,4,3,1,0,0,1,3,2,1,3,5,2,2,2,5,3,5,2,2,2,3,3,1,1,2,2,2,1,1,1,0,1,2,5,3,7,5,3,2,1,2,3,3,3,2,1,2,2,3,0,2,2,1,1,3,3,5,3,2,1,2,1,4,8,4,9,11,21,-1,-1,-1,-1,-1,-1,-1,-1,-1,-1,-1,-1,-1
10,8,4,8,10,7,5,3,7,9,12,8,7,6,6,10,2,2,2,2,2,3,3,4,3,4,7,9,9,8,7,3,1,0,0,1,2,3,4,2,2,3,2,2,1,2,6,7,7,5,7,8,8,7,8,7,5,6,3,1,2,2,6,9,9,7,7,7,5,8,9,10,6,4,3,3,4,2,3,5,1,3,2,3,3,6,11,16,12,7,4,6,7,6,7,6,2,2,1,2,3,2,1,1,3,2,1,0,0,0,0,1,2,2,5,7,8,8,3,1,1,1,2,2,1,0,1,2,3,3,3,3,3,3,1,0,0,1,2,1,0,0,2,2,1,0,0,1,1,1,0,1,2,3,3,3,2,1,0,0,0,0,0,1,1,0,0,0,0,1,1,0,0,0,0,1,2,3,1,0,0,0,0,0,0,1,2,1,1,2,2,4,0,1,2,1,0,0,0,0,2,2,1,0,1,3,2,0,1,1,0,0,0,1,2,3,1,0,0,1,2,3,2,1,0,0,1,2,3,2,1,1,4,2,0,1,2,1,0,0,0,1,1,0,0,0,0,1,2,3,3,2,1,0,0,1,3,2,1,0,0,0,0,1,1,1,0,1,2,2,3,3,3,2,1,0,0,0,1,2,1,0,0,1,2,1,0,1,5,5,2,0,0,1,1,1,2,2,2,3,3,2,1,0,0,0,0,0,0,0,0,1,4,2,1,3,2,3,1,1,1,1,1,0,2,0,1,3,2,1,0,0,1,2,1,1,6,3,2,2,3,4,3,1,5,1,2,1,2,1,1,2,3,0,2,5,4,7,7,7,5,7,7,4,6,6,6,2,1,1,1,3,3,6,3,2,4,6,2,2,1,4,4,2,2,3,4,7,8,10,11,7,6,3,1,2,1,6,2,4,7,3,1,0,1,2,3,2,1,3,2,1,2,3,6,8,4,5,5,0,1,5,8,7,10,11,5,20,13,-1,-1,-1,-1,-1,-1,-1,-1,-1,-1,-1,-1,-1,-1
20,12,8,11,15,12,12,22,15,10,5,12,11,7,4,11,4,5,2,8,5,2,5,1,1,4,7,8,11,9,7,5,1,0,0,0,1,1,2,4,4,1,2,5,2,1,3,6,6,5,7,6,6,8,7,7,6,5,2,0,2,1,1,3,8,8,6,7,8,9,10,7,4,4,4,2,1,2,4,4,7,8,7,6,4,5,12,16,12,6,3,2,1,2,4,6,2,2,2,4,2,2,0,1,2,2,0,0,0,0,0,1,5,3,4,7,12,10,4,7,2,0,3,3,1,0,0,2,3,3,3,3,3,2,1,0,0,1,2,1,0,1,2,3,1,0,0,0,2,0,1,2,3,3,3,2,1,0,0,0,0,0,1,2,1,0,0,0,0,1,1,0,0,0,0,1,3,2,1,0,0,0,0,0,0,1,1,0,1,4,4,1,1,2,2,1,0,0,0,1,2,3,1,0,1,2,2,0,2,0,0,0,1,2,3,2,1,0,0,1,3,2,1,0,0,0,1,3,3,3,3,4,1,2,1,1,2,1,0,0,1,2,1,0,0,0,0,0,0,0,1,1,0,0,0,1,2,3,1,0,0,0,0,0,2,0,0,1,1,2,3,3,3,3,1,0,0,1,2,2,1,0,0,1,2,1,0,1,6,3,2,1,1,2,2,1,2,1,3,3,2,1,0,0,0,0,0,0,0,0,0,1,2,2,0,2,4,2,1,2,1,1,1,1,1,1,1,2,3,1,0,0,1,2,1,1,4,4,4,2,0,1,0,5,6,3,2,2,2,2,1,2,2,3,4,7,7,8,9,8,4,7,7,5,3,7,7,4,3,3,1,2,4,7,4,5,2,5,1,2,1,5,3,0,3,3,4,7,8,11,10,8,7,3,1,1,1,2,1,3,4,3,1,1,2,2,1,2,1,1,1,2,2,2,5,5,9,13,9,5,6,15,14,8,8,7,14,18,-1,-1,-1,-1,-1,-1,-1,-1,-1,-1,-1,-1,-1,-1,-1
10,31,21,15,13,1,15,12,18,1,18,9,20,17,24,5,4,10,5,4,10,8,5,7,11,7,6,6,6,4,4,4,6,2,1,1,2,2,2,4,1,1,0,1,1,2,2,2,2,1,2,1,1,1,2,3,4,3,2,2,2,1,2,2,4,1,4,6,7,8,4,2,3,3,3,3,3,4,6,9,8,8,8,4,4,3,3,2,3,3,2,3,1,2,3,3,4,4,6,6,4,4,3,1,1,2,2,2,1,0,0,2,6,4,2,1,2,3,7,9,6,3,5,3,1,2,2,2,1,0,0,0,0,0,0,0,0,0,1,1,0,0,1,2,1,0,0,1,1,1,2,2,1,0,0,0,0,0,0,0,0,0,1,2,1,0,0,0,0,1,1,0,0,0,0,1,1,0,0,0,0,0,0,0,0,1,1,0,1,3,2,1,2,2,1,0,0,0,0,0,0,1,1,0,0,1,2,0,1,1,0,0,1,2,1,0,0,0,0,1,1,0,0,0,0,1,2,1,0,1,2,2,1,0,0,1,1,0,0,0,1,2,1,0,0,0,0,0,0,0,1,2,1,0,0,0,0,1,1,0,0,0,0,1,1,1,1,2,2,2,1,0,0,1,1,0,0,1,2,1,0,0,0,1,1,0,0,1,4,1,0,0,1,2,1,1,1,1,1,1,2,3,2,1,0,0,0,0,0,0,0,0,0,0,0,1,2,1,1,1,1,1,3,2,1,1,2,3,3,1,0,0,1,1,0,1,2,3,2,1,0,0,0,2,4,4,3,2,1,2,3,3,3,3,4,6,4,7,7,6,4,1,1,0,2,1,1,2,6,2,1,1,4,4,2,0,1,4,1,1,1,2,1,0,1,1,3,4,3,1,2,2,2,0,1,1,1,0,1,1,2,3,3,2,3,3,2,2,1,1,2,2,2,3,4,5,21,7,9,10,5,4,8,6,5,3,19,8,-1,-1,-1,-1,-1,-1,-1,-1,-1,-1,-1,-1,-1,-1,-1
18,19,30,1,16,26,13,19,15,9,17,13,13,22,15,9,6,11,26,17,28,6,19,15,8,7,6,4,4,4,6,8,6,3,3,2,1,2,3,3,1,1,1,3,3,3,2,0,1,2,2,1,1,1,2,2,6,3,3,3,2,2,1,3,5,0,2,4,4,5,1,2,3,3,2,1,3,4,6,5,7,3,2,1,2,1,3,3,3,1,1,1,1,1,1,2,4,4,6,6,4,4,3,3,6,7,4,4,5,2,1,1,5,2,2,5,3,4,7,6,5,3,4,6,4,3,3,1,1,0,0,0,0,0,0,0,0,1,2,1,0,1,2,2,1,0,0,0,1,2,2,2,1,0,0,0,0,0,0,1,2,3,3,1,0,0,0,0,0,1,1,0,0,0,0,1,1,0,0,0,0,0,0,0,0,1,1,0,1,1,1,1,2,1,0,0,0,0,0,0,1,2,1,0,1,2,1,0,0,0,1,2,3,1,0,0,0,0,0,1,1,0,0,0,1,2,2,1,0,0,0,0,0,0,1,2,1,0,0,1,2,1,0,0,0,0,0,1,2,3,3,1,0,0,0,0,0,1,1,0,0,0,0,0,0,0,1,2,1,1,2,1,1,2,1,0,1,2,1,0,0,0,1,2,1,0,0,1,1,1,0,0,1,1,0,1,1,2,1,2,3,3,3,2,1,0,0,0,0,0,0,0,0,1,2,3,1,2,1,1,3,2,2,3,3,3,3,3,2,1,0,0,1,1,0,0,0,1,2,5,3,3,2,1,2,3,2,1,1,1,2,3,1,0,2,2,2,3,5,6,2,1,2,1,2,2,3,4,5,3,2,5,7,6,4,6,2,1,1,1,1,2,1,0,1,3,3,5,3,0,3,4,5,1,1,1,1,0,1,1,3,3,2,3,1,1,2,3,1,2,2,1,2,1,2,6,7,19,22,22,13,12,11,8,6,20,11,-1,-1,-1,-1,-1,-1,-1,-1,-1,-1,-1,-1,-1,-1,-1,-1
-1,-1,9,26,19,21,27,2,11,16,4,5,19,22,2,7,18,9,38,17,15,21,21,10,6,6,4,4,3,3,3,6,4,4,3,3,3,3,2,2,0,1,3,4,4,3,2,1,1,2,1,0,1,0,1,2,6,1,1,2,3,3,3,2,1,2,5,4,4,3,5,5,3,3,3,2,1,3,4,3,1,0,1,3,2,2,3,4,3,1,3,3,3,4,7,7,6,4,6,6,4,3,3,6,10,12,8,5,6,3,2,2,2,2,4,8,7,4,1,1,1,1,4,7,7,2,2,2,1,0,0,0,0,0,0,0,0,1,2,1,0,1,2,1,0,0,0,0,1,2,1,4,1,0,0,0,0,0,0,1,3,3,2,1,0,0,0,0,0,1,1,0,0,0,0,1,1,0,0,0,0,0,0,0,1,2,1,0,0,0,0,1,1,0,0,0,0,0,1,2,3,2,1,0,1,2,1,0,0,1,2,3,2,1,0,0,0,0,0,1,1,0,0,0,1,2,1,0,0,0,0,0,0,0,1,2,1,0,1,2,2,1,0,0,0,1,2,3,3,3,2,1,0,0,0,0,0,1,1,0,0,0,0,0,0,1,2,1,0,1,2,3,3,2,1,0,1,2,1,1,2,3,3,2,1,0,0,0,0,0,0,0,1,1,1,3,2,2,1,2,1,0,1,2,3,3,3,3,3,3,3,3,3,3,3,2,2,2,1,1,2,3,1,1,2,2,1,0,0,0,1,2,3,1,0,0,1,2,3,3,3,3,3,3,2,1,0,1,3,3,3,2,2,2,2,5,4,4,6,4,3,3,5,3,3,5,3,2,3,4,6,4,4,3,3,6,2,0,1,2,1,4,2,0,1,2,3,2,1,1,2,6,5,2,1,1,1,0,1,1,1,0,1,1,1,0,1,2,2,3,2,1,1,1,0,1,19,11,18,13,28,2,6,8,11,6,-1,-1,-1,-1,-1,-1,-1,-1,-1,-1,-1,-1,-1,-1,-1,-1,-1
-1,-1,-1,-1,-1,-1,-1,-1,-1,5,24,18,23,6,18,14,15,12,15,16,28,16,6,6,8,3,3,3,2,1,2,3,6,7,4,4,4,4,4,4,3,2,2,3,3,3,3,2,1,2,1,0,1,0,1,2,6,1,1,1,3,6,7,10,6,6,7,6,6,6,7,7,3,2,1,2,3,3,6,5,8,6,4,7,7,6,6,4,2,1,3,4,4,6,7,9,8,4,4,3,3,4,7,11,13,13,9,5,6,4,4,6,2,5,6,7,10,6,2,1,4,2,3,6,7,2,2,4,2,2,1,0,0,0,0,0,1,2,1,0,1,2,1,0,0,0,0,0,1,2,1,5,2,1,0,0,0,0,0,1,1,0,0,0,0,0,0,0,0,1,1,0,0,0,0,1,1,0,0,0,0,0,0,1,2,2,1,0,0,0,0,1,1,0,0,0,1,2,3,3,2,1,0,1,2,1,0,0,1,2,2,1,0,0,0,0,0,0,0,1,1,0,0,0,1,2,1,0,0,0,0,0,0,1,2,1,0,1,2,2,1,0,0,0,1,2,3,2,1,0,0,0,0,0,0,0,0,1,1,0,0,0,0,0,0,1,2,1,0,0,1,2,2,1,0,1,2,1,0,1,3,3,2,1,0,0,0,0,0,0,0,0,1,1,1,2,3,1,2,1,0,0,0,1,2,3,3,3,3,3,3,3,3,2,2,3,2,1,0,0,0,1,1,0,0,0,0,0,0,0,1,3,2,1,0,0,0,1,1,2,3,3,2,2,3,2,1,1,2,3,3,3,3,4,5,3,4,2,2,2,1,1,1,2,5,3,3,3,2,2,4,2,1,1,1,5,2,0,1,5,2,2,4,2,2,1,1,2,2,2,3,6,5,2,1,1,1,1,2,1,2,1,1,1,1,0,0,1,2,1,0,1,2,1,0,3,8,16,17,17,10,6,20,-1,-1,-1,-1,-1,-1,-1,-1,-1,-1,-1,-1,-1,-1,-1,-1,-1,-1,-1,-1
-1,-1,-1,-1,-1,-1,-1,-1,-1,-1,-1,-1,-1,16,-1,-1,-1,14,8,14,4,1,10,6,4,5,3,3,3,3,3,5,4,6,6,6,4,4,4,4,4,4,3,0,2,3,3,3,1,2,2,1,1,1,2,2,5,2,3,2,4,7,9,12,9,5,6,5,5,5,6,6,4,3,2,1,2,4,6,9,8,8,5,7,9,10,9,8,7,7,7,7,6,4,4,8,7,5,4,2,4,8,9,10,11,8,7,3,3,7,7,8,8,6,4,4,6,5,5,3,7,2,0,3,6,1,3,6,4,3,3,2,1,0,0,1,2,2,1,0,1,2,1,0,0,0,0,0,1,2,2,3,5,3,2,1,0,1,2,3,1,0,0,0,0,0,0,0,0,1,1,0,0,0,0,1,1,0,0,0,0,0,0,1,2,1,0,0,0,0,0,1,1,0,0,0,1,3,2,1,0,0,0,1,2,1,0,0,1,2,1,0,0,0,0,0,0,0,0,1,1,0,0,0,1,2,2,1,0,0,0,0,0,1,2,1,0,1,2,1,1,1,0,0,1,2,1,0,0,0,0,0,0,0,0,0,0,1,1,0,0,0,0,0,0,1,1,0,0,0,0,0,0,0,0,1,2,1,0,1,1,0,0,0,0,0,0,0,0,0,0,0,1,1,2,1,1,1,2,1,2,3,2,1,0,0,0,0,0,0,0,0,0,1,3,2,1,0,0,0,1,2,1,0,0,0,0,0,0,0,1,1,0,0,1,1,1,2,1,1,3,4,3,2,1,1,0,1,0,0,1,5,5,4,2,3,3,3,3,3,2,3,2,2,4,1,0,4,2,2,1,0,1,1,0,1,4,1,1,4,2,1,4,3,3,2,0,2,3,2,2,5,6,3,2,1,2,2,2,2,5,0,1,3,2,1,0,1,3,2,1,0,2,2,1,5,5,7,15,-1,-1,-1,-1,-1,-1,-1,-1,-1,-1,-1,-1,-1,-1,-1,-1,-1,-1,-1,-1,-1,-1,-1,-1
-1,-1,-1,-1,-1,-1,-1,-1,-1,-1,-1,-1,-1,-1,-1,-1,-1,-1,-1,-1,5,10,9,8,3,4,4,3,3,2,2,2,2,2,3,4,4,3,4,4,4,5,2,1,2,2,0,1,2,1,2,1,1,1,2,2,6,2,2,5,6,8,9,8,8,2,1,1,2,2,2,0,3,2,2,3,5,4,6,7,7,6,6,4,7,8,8,7,7,7,10,7,3,3,2,2,6,8,6,4,6,7,9,7,6,1,2,1,2,4,8,9,9,8,4,3,2,2,4,6,6,3,1,4,6,3,2,4,5,3,3,3,2,1,0,1,2,1,0,0,1,1,0,0,0,0,0,1,1,1,2,3,2,2,3,1,1,2,3,2,1,0,0,0,0,0,0,0,0,1,1,0,0,0,0,1,1,0,0,0,0,0,0,1,1,0,0,0,0,0,0,1,1,0,0,1,2,1,0,0,0,0,0,1,1,0,0,0,1,1,0,1,1,1,0,0,0,0,0,1,1,0,0,0,0,1,2,1,0,1,2,2,0,2,1,0,0,1,1,1,4,1,0,0,1,1,0,0,0,0,0,0,0,0,0,0,0,1,1,0,0,0,0,0,0,1,1,0,0,0,0,0,0,0,0,1,1,0,0,1,1,0,0,0,0,0,0,0,0,0,0,0,1,1,2,1,1,1,1,1,3,3,3,2,1,0,0,0,0,0,0,0,1,2,1,0,0,0,0,0,1,2,1,0,0,0,0,0,0,0,1,1,0,0,1,4,1,1,0,1,3,3,2,2,1,2,1,1,0,0,1,4,7,4,2,0,2,3,3,5,5,3,3,3,3,3,3,5,5,4,4,3,5,5,2,5,2,1,1,2,1,2,5,1,2,2,1,2,3,2,3,6,2,3,3,2,2,3,1,5,3,1,0,2,2,1,0,1,2,3,3,2,2,3,2,2,9,-1,-1,-1,-1,-1,-1,-1,-1,-1,-1,-1,-1,-1,-1,-1,-1,-1,-1,-1,-1,-1,-1,-1,-1,-1,-1
-1,-1,-1,-1,-1,-1,-1,-1,-1,-1,-1,-1,-1,-1,-1,-1,-1,-1,-1,-1,-1,-1,6,8,7,3,3,3,5,4,3,2,2,1,1,3,6,4,1,8,1,5,2,2,7,8,7,10,3,7,3,2,5,4,3,8,13,11,3,2,6,6,4,4,5,2,2,3,4,6,3,5,3,4,6,4,2,4,1,5,5,2,2,3,2,1,2,3,3,3,5,4,7,3,1,2,7,6,7,11,12,8,6,5,5,5,2,2,5,3,5,4,8,6,1,5,1,4,8,9,10,11,8,6,2,2,1,1,4,1,4,1,2,1,3,5,2,1,0,1,3,2,0,1,1,0,0,0,2,0,1,1,2,3,3,1,1,2,1,0,0,0,0,0,0,0,0,0,1,2,1,0,0,0,1,2,1,0,0,0,0,0,0,2,2,2,1,0,0,0,1,2,1,0,1,2,2,1,0,0,0,0,1,2,1,0,0,1,2,1,0,0,2,1,2,3,3,3,3,3,1,0,0,0,0,0,1,1,0,0,2,2,0,2,2,1,0,1,2,1,4,1,0,1,2,1,0,0,0,0,0,0,0,1,2,3,3,3,1,0,0,0,1,2,3,3,1,0,0,0,0,1,2,3,3,3,1,0,0,1,1,0,0,0,0,0,0,1,1,1,0,0,1,1,3,2,5,2,5,2,5,3,2,2,1,0,0,0,0,0,0,1,2,2,1,0,0,1,2,3,3,1,0,0,0,0,0,0,0,1,2,1,0,0,1,4,1,3,2,1,3,3,2,2,4,1,0,1,2,2,1,2,1,4,3,6,8,7,6,5,2,6,4,1,3,3,2,4,6,6,6,3,2,1,6,7,3,1,1,4,3,1,2,2,5,3,10,6,8,6,1,7,2,1,2,6,4,2,1,1,2,2,5,3,3,6,6,1,5,10,11,6,2,-1,-1,-1,-1,-1,-1,-1,-1,-1,-1,-1,-1,-1,-1,-1,-1,-1,-1,-1,-1,-1,-1,-1,-1,-1,-1,-1,-1,-1,-1
-1,-1,-1,-1,-1,-1,-1,-1,-1,-1,-1,-1,-1,-1,-1,-1,-1,-1,-1,-1,-1,-1,-1,-1,-1,7,9,7,4,8,2,7,10,19,17,9,8,11,17,4,6,12,21,21,8,13,14,14,12,3,8,6,7,19,11,15,16,12,7,6,7,7,7,7,7,5,5,4,6,4,1,4,6,6,7,4,3,2,5,4,7,4,1,2,4,2,2,2,2,1,5,8,5,2,1,4,4,1,6,11,10,8,3,1,5,4,7,8,11,7,6,8,8,6,5,5,1,7,7,7,11,11,8,7,4,5,3,7,5,4,5,3,3,9,6,5,9,6,6,2,2,4,0,2,0,0,0,1,1,1,0,0,2,3,2,1,2,1,0,0,0,0,0,0,0,0,0,0,1,2,1,0,0,0,1,2,1,0,0,0,0,0,0,2,5,3,1,0,0,0,1,2,1,0,1,2,1,0,0,0,0,0,1,2,1,0,0,1,2,1,0,1,1,1,3,3,3,3,3,2,1,0,0,0,0,0,1,1,0,1,2,3,1,2,2,0,0,1,2,2,2,1,0,1,2,1,0,0,0,0,0,0,0,1,3,3,3,2,1,0,0,1,2,3,3,2,1,0,0,0,0,1,3,3,3,2,1,0,0,1,1,0,0,0,0,0,0,0,2,0,0,0,1,1,2,5,2,5,2,5,3,3,3,3,1,0,0,0,0,0,0,1,2,1,0,0,0,1,3,3,2,1,0,0,0,0,0,0,0,1,2,1,0,0,1,1,1,2,3,2,2,3,2,1,4,1,0,1,3,3,1,2,5,3,1,6,10,8,7,6,6,4,3,2,3,2,1,2,2,4,4,0,1,5,6,5,3,1,4,6,7,4,4,8,15,4,6,11,18,9,2,6,2,1,5,12,12,4,7,2,6,1,3,8,10,10,16,1,12,100,-1,-1,-1,-1,-1,-1,-1,-1,-1,-1,-1,-1,-1,-1,-1,-1,-1,-1,-1,-1,-1,-1,-1,-1,-1,-1,-1,-1,-1,-1,-1,-1,-1
-1,-1,-1,-1,-1,-1,-1,-1,-1,-1,-1,-1,-1,-1,-1,-1,-1,-1,-1,-1,-1,-1,-1,-1,-1,-1,-1,-1,-1,-1,-1,-1,-1,-1,14,11,6,6,12,10,15,13,8,32,5,24,4,13,11,11,10,11,7,14,16,6,7,4,4,6,7,8,7,7,2,1,4,4,4,2,2,2,2,3,5,3,2,0,2,9,6,4,4,4,6,4,4,3,2,5,8,10,9,5,1,1,4,3,6,6,5,4,3,5,4,6,7,9,9,8,8,7,11,7,8,7,2,2,0,2,2,3,4,6,7,11,10,10,8,3,6,6,10,8,8,9,9,9,7,5,3,1,2,4,3,3,3,2,1,0,0,1,2,2,1,1,2,1,1,1,1,0,0,0,0,0,0,0,1,1,0,0,0,0,1,1,0,0,0,0,0,0,0,2,4,2,1,0,0,1,2,1,0,0,1,1,0,0,0,0,0,0,1,1,0,0,1,2,1,0,0,0,0,1,1,0,0,0,0,0,0,0,0,0,1,2,3,1,1,2,3,3,3,3,2,1,0,0,1,2,2,1,0,1,2,1,0,0,0,0,0,0,0,1,1,0,0,0,0,0,1,2,2,1,0,0,0,0,0,0,0,1,1,0,0,0,0,0,1,2,1,0,0,0,0,0,0,1,1,1,0,1,2,1,0,1,1,1,2,1,2,1,1,1,1,0,0,0,0,0,0,1,1,0,0,0,0,1,1,0,0,0,0,0,0,0,0,0,0,1,1,0,0,0,1,1,4,2,3,3,3,1,1,2,1,2,1,1,3,3,1,1,4,1,1,2,1,2,4,6,3,0,3,4,4,2,1,1,1,2,2,1,2,5,3,3,2,1,4,6,8,8,6,10,10,8,16,5,15,6,6,1,2,6,11,15,4,8,4,1,16,8,6,9,5,16,26,-1,-1,-1,-1,-1,-1,-1,-1,-1,-1,-1,-1,-1,-1,-1,-1,-1,-1,-1,-1,-1,-1,-1,-1,-1,-1,-1,-1,-1,-1,-1,-1,-1,-1,-1,-1
-1,-1,-1,-1,-1,-1,-1,-1,-1,-1,-1,-1,-1,-1,-1,-1,-1,-1,-1,-1,-1,-1,-1,-1,-1,-1,-1,-1,-1,-1,-1,-1,-1,-1,12,8,7,7,4,5,9,22,5,18,19,37,19,17,8,8,6,1,11,15,16,8,6,5,4,6,8,7,5,6,4,3,2,3,4,4,2,4,2,2,2,1,2,4,7,9,7,4,4,4,4,4,3,5,2,3,6,8,8,7,1,0,2,2,4,6,7,6,2,1,1,1,3,3,5,5,4,2,9,5,4,4,3,2,1,3,5,4,4,6,8,10,13,12,3,2,2,3,4,4,2,4,5,5,1,1,1,0,3,3,3,3,3,3,2,1,0,0,1,2,1,1,1,1,2,3,1,0,0,0,0,0,0,0,1,1,0,0,0,0,1,1,0,0,0,0,0,0,0,2,5,2,1,0,0,1,2,1,0,0,1,1,0,0,0,0,0,1,2,1,0,1,2,2,1,0,0,0,1,2,1,0,0,0,0,0,0,0,0,1,2,3,2,1,1,3,2,2,2,2,1,0,0,0,0,1,2,2,1,1,2,2,1,0,0,0,0,0,0,1,1,0,0,0,0,1,2,2,1,0,0,0,0,0,0,0,0,1,1,0,0,0,1,2,3,2,1,0,0,0,0,0,0,0,0,0,1,2,2,1,0,1,1,1,2,1,1,3,2,1,0,0,0,0,0,0,0,1,1,0,0,0,0,1,1,0,0,0,0,0,0,0,0,0,0,1,1,0,0,1,2,3,5,3,4,6,4,3,0,2,1,2,2,5,4,4,3,3,8,7,2,0,2,3,2,6,0,1,2,5,5,3,3,4,1,1,1,2,3,2,2,2,2,0,2,3,5,2,1,1,20,24,17,6,8,3,4,10,11,12,15,23,12,3,6,4,9,9,8,17,-1,-1,-1,-1,-1,-1,-1,-1,-1,-1,-1,-1,-1,-1,-1,-1,-1,-1,-1,-1,-1,-1,-1,-1,-1,-1,-1,-1,-1,-1,-1,-1,-1,-1,-1,-1,-1,-1,-1
-1,-1,-1,-1,-1,-1,-1,-1,-1,-1,-1,-1,-1,-1,-1,-1,-1,-1,-1,-1,-1,-1,-1,-1,-1,-1,-1,-1,-1,-1,-1,-1,-1,-1,-1,-1,-1,-1,-1,10,10,6,10,24,16,13,9,24,5,10,6,10,11,13,20,5,2,1,3,4,6,4,6,6,7,4,0,4,6,3,1,5,2,2,2,1,3,4,8,6,5,3,4,4,4,3,2,3,5,2,0,3,6,5,1,1,3,2,2,2,2,2,1,3,6,4,5,2,2,2,2,5,7,2,0,1,1,1,3,4,3,3,3,4,6,7,9,12,10,9,5,1,2,3,6,4,5,5,3,3,2,1,1,1,1,0,0,1,2,3,3,3,3,3,1,1,1,1,2,2,1,0,0,0,0,0,0,0,1,1,0,0,0,0,1,1,0,0,0,0,0,0,0,2,2,1,0,0,0,1,1,0,0,0,1,1,0,0,0,0,0,1,2,1,0,1,2,1,0,0,1,2,3,2,1,0,0,0,0,0,0,0,0,1,2,1,0,0,1,1,0,0,0,0,0,0,0,0,0,0,1,2,1,0,1,2,1,0,0,0,0,0,0,1,1,0,0,0,0,1,2,1,0,0,0,0,0,0,1,2,3,3,1,0,0,1,2,3,2,1,0,0,0,0,0,1,2,2,1,1,2,2,1,1,2,3,1,0,1,1,1,2,3,2,1,0,0,0,1,2,3,3,1,0,0,1,2,3,1,0,0,0,0,0,0,0,0,0,1,2,1,0,0,1,2,2,3,3,4,6,4,2,1,2,5,4,6,8,8,8,8,8,9,8,6,0,4,7,8,12,6,2,2,7,7,2,3,8,7,4,3,2,1,1,3,6,8,7,7,3,2,3,3,4,5,31,4,2,16,10,4,9,10,12,20,6,7,14,8,-1,-1,-1,-1,-1,-1,-1,-1,-1,-1,-1,-1,-1,-1,-1,-1,-1,-1,-1,-1,-1,-1,-1,-1,-1,-1,-1,-1,-1,-1,-1,-1,-1,-1,-1,-1,-1,-1,-1,-1,-1,-1,-1,-1
-1,-1,-1,-1,-1,-1,-1,-1,-1,-1,-1,-1,-1,-1,-1,-1,-1,-1,-1,-1,-1,-1,-1,-1,-1,-1,-1,-1,-1,-1,-1,-1,-1,-1,-1,-1,-1,-1,-1,-1,-1,-1,-1,-1,7,20,19,14,13,18,14,9,17,18,8,9,1,1,2,3,4,4,6,6,7,4,1,6,3,2,3,3,1,2,2,1,1,2,2,1,2,4,4,4,4,4,3,5,3,1,2,4,4,2,3,6,6,6,6,7,10,8,7,4,6,5,3,3,3,2,1,2,5,3,1,0,0,1,3,4,3,1,1,2,3,4,6,14,13,13,11,7,4,6,5,4,2,3,3,3,2,0,1,2,0,0,0,0,1,2,3,3,3,2,1,2,1,1,3,3,1,0,0,0,0,0,0,0,1,1,0,0,0,0,1,1,0,0,0,0,0,0,0,1,1,0,0,0,1,2,1,0,0,0,1,1,0,0,0,0,1,2,1,0,1,2,1,0,0,1,2,3,2,1,0,0,0,0,0,0,0,0,0,1,2,1,0,0,1,1,0,0,0,0,0,0,0,0,0,0,1,2,1,0,1,2,1,0,0,0,0,0,0,1,1,0,0,0,1,2,1,0,0,0,0,0,0,1,2,3,3,2,1,0,0,1,2,1,0,0,0,0,0,0,1,2,3,3,3,3,2,1,1,2,3,2,2,3,3,1,0,0,1,2,1,0,0,1,2,3,3,2,1,0,1,2,3,2,1,0,0,0,0,0,0,0,0,0,1,2,1,0,0,1,3,2,1,1,4,4,4,2,3,5,2,3,6,8,9,9,9,9,8,8,6,3,4,7,8,6,5,6,6,8,7,4,2,6,6,5,2,1,0,1,4,8,9,9,8,6,1,2,5,4,16,25,11,8,9,13,25,12,1,17,20,-1,-1,-1,-1,-1,-1,-1,-1,-1,-1,-1,-1,-1,-1,-1,-1,-1,-1,-1,-1,-1,-1,-1,-1,-1,-1,-1,-1,-1,-1,-1,-1,-1,-1,-1,-1,-1,-1,-1,-1,-1,-1,-1,-1,-1,-1,-1,-1
-1,-1,-1,-1,-1,-1,-1,-1,-1,-1,-1,-1,-1,-1,-1,-1,-1,-1,-1,-1,-1,-1,-1,-1,-1,-1,-1,-1,-1,-1,-1,-1,-1,-1,-1,-1,-1,-1,-1,-1,-1,-1,-1,-1,-1,-1,-1,23,18,12,2,13,26,11,8,5,2,2,3,3,3,4,6,4,5,3,5,7,3,3,2,2,1,2,6,6,5,2,1,1,3,3,4,4,4,4,4,3,2,2,4,4,2,3,4,7,4,6,8,9,13,10,9,7,3,3,3,4,3,1,1,1,1,1,0,0,0,1,3,3,1,2,3,1,1,2,4,11,10,11,12,9,11,7,9,8,6,6,3,5,3,3,3,2,1,0,0,1,2,3,3,3,3,3,3,2,1,1,2,2,1,0,0,0,0,0,0,0,1,1,0,0,0,0,1,1,0,0,0,0,0,0,0,1,1,0,0,0,1,2,1,0,0,0,1,1,0,0,0,1,2,2,1,0,1,2,1,0,0,1,2,1,0,0,0,0,0,0,0,0,0,0,0,1,2,3,2,1,1,3,2,1,0,0,0,1,2,3,3,3,3,2,1,1,2,2,1,0,0,0,0,0,0,1,1,0,0,1,2,2,1,0,0,0,0,0,0,1,2,1,0,0,0,0,1,2,1,0,0,0,0,0,0,1,2,2,1,1,2,2,1,1,2,2,1,1,3,3,2,1,0,1,2,3,1,0,0,1,2,1,0,0,0,1,2,2,1,0,0,0,0,0,0,0,0,0,0,0,1,1,1,2,3,3,4,4,3,4,8,9,8,6,3,2,2,3,4,8,8,8,8,8,7,7,10,13,14,16,15,14,12,10,8,8,6,6,6,6,6,4,6,3,1,1,3,6,6,7,7,4,2,1,2,7,17,20,26,11,8,6,23,-1,-1,-1,-1,-1,-1,-1,-1,-1,-1,-1,-1,-1,-1,-1,-1,-1,-1,-1,-1,-1,-1,-1,-1,-1,-1,-1,-1,-1,-1,-1,-1,-1,-1,-1,-1,-1,-1,-1,-1,-1,-1,-1,-1,-1,-1,-1,-1,-1,-1,-1,-1
-1,-1,-1,-1,-1,-1,-1,-1,-1,-1,-1,-1,-1,-1,-1,-1,-1,-1,-1,-1,-1,-1,-1,-1,-1,-1,-1,-1,-1,-1,-1,-1,-1,-1,-1,-1,-1,-1,-1,-1,-1,-1,-1,-1,-1,-1,-1,-1,-1,-1,-1,-1,-1,6,2,3,3,2,2,3,4,6,6,4,2,2,7,8,7,4,1,1,3,6,9,8,8,6,4,6,2,3,3,4,4,4,4,4,2,3,6,8,7,7,4,5,6,6,7,10,10,10,9,8,6,4,6,7,4,5,2,2,2,3,2,1,0,1,1,1,2,3,2,2,3,3,3,7,7,7,7,8,7,6,7,8,9,7,6,6,6,4,4,3,1,0,0,1,3,3,3,4,3,3,2,1,0,0,0,0,0,0,0,0,0,0,0,0,1,1,0,0,0,0,1,1,0,0,0,0,0,0,0,1,1,0,0,0,1,1,1,1,1,0,1,1,0,0,0,1,2,1,0,0,1,1,0,0,0,1,1,0,0,0,0,0,0,0,0,0,0,0,0,0,1,2,3,1,1,2,3,2,1,0,0,1,3,3,3,3,2,1,0,1,2,1,0,0,0,0,0,0,0,1,1,0,1,2,2,1,0,0,0,0,0,0,0,1,1,0,0,0,0,1,2,2,1,0,0,0,0,0,0,1,2,1,0,0,0,0,0,1,2,1,0,1,1,0,0,0,1,2,3,2,1,0,0,1,1,0,0,0,0,1,2,1,0,0,0,0,0,0,0,0,0,0,0,0,1,1,1,3,3,3,3,5,4,6,7,7,7,6,3,2,4,2,3,5,4,4,3,4,8,10,15,19,21,21,20,18,14,10,7,6,3,4,7,8,9,5,7,4,5,3,1,4,0,2,6,4,4,3,1,6,22,16,100,-1,-1,-1,-1,-1,-1,-1,-1,-1,-1,-1,-1,-1,-1,-1,-1,-1,-1,-1,-1,-1,-1,-1,-1,-1,-1,-1,-1,-1,-1,-1,-1,-1,-1,-1,-1,-1,-1,-1,-1,-1,-1,-1,-1,-1,-1,-1,-1,-1,-1,-1,-1,-1,-1,-1,-1
-1,-1,-1,-1,-1,-1,-1,-1,-1,-1,-1,-1,-1,-1,-1,-1,-1,-1,-1,-1,-1,-1,-1,-1,-1,-1,-1,-1,-1,-1,-1,-1,-1,-1,-1,-1,-1,-1,-1,-1,-1,-1,-1,-1,-1,-1,-1,-1,-1,-1,-1,-1,-1,-1,-1,-1,-1,4,7,4,0,6,2,5,1,5,9,9,5,7,11,7,13,9,12,11,8,6,12,11,6,2,1,1,6,4,5,6,0,9,9,4,7,13,12,7,11,6,6,8,8,7,7,3,3,3,6,7,7,8,6,6,3,4,4,1,1,2,2,3,3,3,3,6,4,4,2,2,1,2,3,5,6,11,13,8,4,4,4,3,5,4,4,2,1,1,2,3,1,0,0,2,0,0,0,0,0,0,0,0,0,0,0,1,2,3,3,3,3,1,0,0,0,0,1,2,1,0,0,0,0,0,0,1,1,1,2,3,3,1,0,2,0,0,1,1,0,0,1,2,1,0,0,1,2,1,0,1,2,3,1,0,0,0,0,0,0,0,0,0,0,0,1,1,1,1,2,1,0,1,2,2,0,1,2,3,1,0,1,1,1,0,1,2,1,0,0,0,0,0,0,0,0,1,3,2,1,2,3,2,1,0,0,1,2,3,3,3,1,0,0,1,2,3,2,1,0,0,0,0,0,0,0,1,1,0,0,0,0,0,1,2,1,0,0,1,1,0,0,0,0,2,2,1,0,0,1,2,1,0,0,1,2,3,1,0,0,0,0,1,2,3,3,3,3,3,3,3,5,2,3,1,1,2,3,3,2,3,3,2,3,3,4,6,11,6,3,1,3,3,6,10,10,11,9,13,20,14,18,17,15,11,10,5,12,13,12,8,8,6,3,5,12,11,6,7,1,6,8,6,8,4,-1,-1,-1,-1,-1,-1,-1,-1,-1,-1,-1,-1,-1,-1,-1,-1,-1,-1,-1,-1,-1,-1,-1,-1,-1,-1,-1,-1,-1,-1,-1,-1,-1,-1,-1,-1,-1,-1,-1,-1,-1,-1,-1,-1,-1,-1,-1,-1,-1,-1,-1,-1,-1,-1,-1,-1,-1,-1,-1,-1,-1
-1,-1,-1,-1,-1,-1,-1,-1,-1,-1,-1,-1,-1,-1,-1,-1,-1,-1,-1,-1,-1,-1,-1,-1,-1,-1,-1,-1,-1,-1,-1,-1,-1,-1,-1,-1,-1,-1,-1,-1,-1,-1,-1,-1,-1,-1,-1,-1,-1,-1,-1,-1,-1,-1,-1,-1,-1,-1,-1,-1,-1,-1,-1,5,10,19,17,10,16,10,10,12,12,9,5,14,8,13,14,4,5,7,14,4,11,2,11,32,11,10,12,19,6,14,5,11,6,6,4,5,3,2,1,2,0,1,3,5,7,6,4,4,5,0,2,6,6,3,6,3,4,2,2,2,3,3,2,4,1,2,1,2,4,9,10,11,8,5,4,5,1,3,3,3,3,0,3,2,2,2,1,1,1,0,0,0,0,0,0,0,0,0,0,1,3,3,3,3,2,1,0,0,0,0,1,2,1,0,0,0,0,0,0,1,1,1,3,3,2,1,1,1,1,0,1,1,0,0,1,2,1,0,0,1,2,1,0,1,3,2,1,0,0,0,0,1,2,2,1,0,0,0,0,2,1,2,2,1,0,1,3,2,1,1,3,2,1,0,0,2,0,0,1,2,1,0,0,0,0,0,0,0,0,1,2,3,1,2,3,3,1,0,0,1,3,3,3,2,1,0,0,1,3,2,1,0,0,0,0,0,0,0,1,2,1,0,0,0,0,0,1,2,1,0,0,1,1,0,0,0,1,2,2,0,0,1,2,2,1,1,2,3,3,2,1,0,0,0,0,1,3,3,3,3,3,3,4,4,4,5,2,1,0,2,2,4,1,1,2,5,3,3,4,10,7,7,4,5,2,4,7,7,10,3,15,18,7,15,11,16,18,21,35,19,15,16,10,4,7,8,11,3,1,16,15,2,8,8,12,7,17,-1,-1,-1,-1,-1,-1,-1,-1,-1,-1,-1,-1,-1,-1,-1,-1,-1,-1,-1,-1,-1,-1,-1,-1,-1,-1,-1,-1,-1,-1,-1,-1,-1,-1,-1,-1,-1,-1,-1,-1,-1,-1,-1,-1,-1,-1,-1,-1,-1,-1,-1,-1,-1,-1,-1,-1,-1,-1,-1,-1,-1,-1
-1,-1,-1,-1,-1,-1,-1,-1,-1,-1,-1,-1,-1,-1,-1,-1,-1,-1,-1,-1,-1,-1,-1,-1,-1,-1,-1,-1,-1,-1,-1,-1,-1,-1,-1,-1,-1,-1,-1,-1,-1,-1,-1,-1,-1,-1,-1,-1,-1,-1,-1,-1,-1,-1,-1,-1,-1,-1,-1,-1,-1,-1,-1,-1,-1,-1,-1,7,12,9,9,9,11,42,38,7,9,7,1,6,15,10,14,4,15,9,28,19,11,13,11,17,6,23,18,6,7,4,4,3,3,3,3,3,1,1,1,0,1,2,5,3,5,5,5,5,5,5,4,2,3,3,3,2,1,3,4,4,5,3,2,3,3,1,1,3,7,9,6,5,3,3,4,6,6,4,5,0,3,3,1,0,0,0,0,0,0,0,0,0,0,0,0,1,1,0,0,1,2,2,1,0,0,0,0,1,1,0,0,0,0,0,0,1,1,1,1,0,0,0,0,0,0,0,1,1,0,0,1,1,0,0,0,1,1,0,0,1,3,2,1,0,0,0,0,1,3,3,3,3,2,1,1,1,1,2,1,0,1,2,1,0,0,1,1,0,0,0,1,2,2,3,3,1,0,0,0,1,2,3,3,3,3,3,3,3,1,0,1,2,1,0,0,1,1,0,0,0,0,0,0,1,1,0,0,0,0,0,0,0,0,0,1,2,1,0,0,0,0,0,1,1,0,0,1,2,1,0,0,0,1,2,2,1,2,3,2,1,1,2,3,2,1,0,0,0,0,0,0,1,1,0,0,1,2,3,3,3,3,3,3,3,3,3,3,5,4,2,2,2,4,4,2,2,2,2,3,4,6,6,6,11,5,13,20,22,3,10,16,10,14,24,27,23,33,30,22,17,21,18,10,13,19,11,15,1,4,12,-1,-1,-1,-1,-1,-1,-1,-1,-1,-1,-1,-1,-1,-1,-1,-1,-1,-1,-1,-1,-1,-1,-1,-1,-1,-1,-1,-1,-1,-1,-1,-1,-1,-1,-1,-1,-1,-1,-1,-1,-1,-1,-1,-1,-1,-1,-1,-1,-1,-1,-1,-1,-1,-1,-1,-1,-1,-1,-1,-1,-1,-1,-1,-1,-1
-1,-1,-1,-1,-1,-1,-1,-1,-1,-1,-1,-1,-1,-1,-1,-1,-1,-1,-1,-1,-1,-1,-1,-1,-1,-1,-1,-1,-1,-1,-1,-1,-1,-1,-1,-1,-1,-1,-1,-1,-1,-1,-1,-1,-1,-1,-1,-1,-1,-1,-1,-1,-1,-1,-1,-1,-1,-1,-1,-1,-1,-1,-1,-1,-1,-1,-1,-1,-1,-1,-1,-1,-1,34,39,17,3,8,16,13,9,4,6,5,20,10,14,12,4,16,2,6,19,30,21,5,8,8,8,8,7,6,4,4,5,3,1,2,3,4,7,7,8,9,10,7,4,8,10,8,3,2,1,1,1,2,3,4,3,2,1,3,3,3,2,2,6,6,3,6,6,7,9,10,9,8,4,1,1,1,2,1,0,0,0,0,0,0,0,0,0,0,1,2,1,0,0,1,3,3,1,0,0,0,0,1,1,0,0,0,0,0,1,2,1,1,1,0,0,0,0,0,0,0,1,1,0,0,1,1,0,0,1,2,1,0,0,1,2,3,2,1,0,1,2,3,1,1,2,3,3,3,3,3,3,1,0,0,1,2,1,0,0,1,1,0,0,0,0,1,3,3,2,1,0,0,0,1,3,3,3,3,3,3,3,2,1,0,1,2,1,0,1,2,1,0,0,0,0,1,2,3,1,0,0,0,0,0,0,0,1,2,3,1,0,0,0,0,0,1,2,1,0,1,2,2,1,0,0,1,2,2,1,1,3,2,1,1,2,2,1,0,0,0,0,0,1,2,3,3,1,0,1,2,3,2,2,3,3,3,3,4,3,3,2,3,6,1,2,1,3,5,0,3,1,2,1,2,5,3,4,4,20,9,3,3,23,19,17,13,8,9,4,19,40,29,20,21,26,17,40,28,21,13,18,-1,-1,-1,-1,-1,-1,-1,-1,-1,-1,-1,-1,-1,-1,-1,-1,-1,-1,-1,-1,-1,-1,-1,-1,-1,-1,-1,-1,-1,-1,-1,-1,-1,-1,-1,-1,-1,-1,-1,-1,-1,-1,-1,-1,-1,-1,-1,-1,-1,-1,-1,-1,-1,-1,-1,-1,-1,-1,-1,-1,-1,-1,-1,-1,-1,-1,-1,-1
-1,-1,-1,-1,-1,-1,-1,-1,-1,-1,-1,-1,-1,-1,-1,-1,-1,-1,-1,-1,-1,-1,-1,-1,-1,-1,-1,-1,-1,-1,-1,-1,-1,-1,-1,-1,-1,-1,-1,-1,-1,-1,-1,-1,-1,-1,-1,-1,-1,-1,-1,-1,-1,-1,-1,-1,-1,-1,-1,-1,-1,-1,-1,-1,-1,-1,-1,-1,-1,-1,-1,-1,-1,-1,-1,-1,-1,-1,21,7,4,3,2,2,19,9,5,16,1,15,6,12,11,20,13,14,8,8,8,8,8,7,6,6,6,4,4,4,4,6,7,8,10,9,9,8,9,10,9,9,4,2,1,2,1,0,1,4,2,0,1,2,2,3,2,2,2,2,1,3,3,8,11,11,7,7,4,5,3,1,2,2,1,0,0,0,0,0,0,1,2,3,3,2,1,0,0,1,3,3,1,0,0,0,0,1,1,0,0,0,1,2,3,2,1,1,1,0,0,0,0,0,0,0,1,1,0,0,1,1,0,0,1,2,1,0,1,1,1,1,2,1,0,1,3,2,1,0,0,0,1,2,3,3,2,1,0,1,2,1,0,1,2,3,1,0,0,0,0,1,1,0,0,0,0,0,0,1,1,0,0,0,0,0,0,0,0,1,2,1,0,1,2,2,1,0,0,1,2,3,3,2,1,0,0,0,0,0,0,1,2,3,2,1,0,0,0,0,0,1,2,1,0,1,2,1,0,0,0,1,2,1,0,1,1,0,1,2,2,1,0,0,0,0,1,2,3,3,3,2,1,1,2,2,1,2,3,2,1,0,0,2,0,1,2,2,4,2,3,2,2,4,1,5,1,2,1,0,1,1,1,3,2,9,1,8,21,5,25,13,2,5,12,6,15,6,11,13,14,14,100,-1,-1,-1,-1,-1,-1,-1,-1,-1,-1,-1,-1,-1,-1,-1,-1,-1,-1,-1,-1,-1,-1,-1,-1,-1,-1,-1,-1,-1,-1,-1,-1,-1,-1,-1,-1,-1,-1,-1,-1,-1,-1,-1,-1,-1,-1,-1,-1,-1,-1,-1,-1,-1,-1,-1,-1,-1,-1,-1,-1,-1,-1,-1,-1,-1,-1,-1,-1,-1,-1,-1,-1
-1,-1,-1,-1,-1,-1,-1,-1,-1,-1,-1,-1,-1,-1,-1,-1,-1,-1,-1,-1,-1,-1,-1,-1,-1,-1,-1,-1,-1,-1,-1,-1,-1,-1,-1,-1,-1,-1,-1,-1,-1,-1,-1,-1,-1,-1,-1,-1,-1,-1,-1,-1,-1,-1,-1,-1,-1,-1,-1,-1,-1,-1,-1,-1,-1,-1,-1,-1,-1,-1,-1,-1,-1,-1,-1,-1,-1,-1,-1,-1,-1,-1,-1,8,25,5,12,4,1,10,13,5,18,12,11,14,6,4,4,4,6,7,6,6,6,6,7,6,4,4,6,7,11,7,9,8,9,7,6,6,4,2,0,2,2,0,3,3,6,2,1,0,1,4,1,1,1,3,1,4,3,5,6,5,2,5,3,3,3,2,1,2,3,3,3,3,3,3,3,3,3,3,2,1,0,0,0,1,2,2,1,0,0,0,1,2,1,0,0,1,2,3,2,1,0,1,1,0,0,0,0,0,0,0,1,1,0,0,1,1,0,1,2,1,0,1,2,3,1,1,2,1,0,1,3,2,1,0,0,0,0,0,0,0,0,0,0,1,2,1,0,1,3,2,1,0,0,0,1,2,1,0,0,0,0,0,0,1,1,0,0,0,0,0,0,0,0,1,2,1,0,1,2,1,0,0,0,1,3,2,1,0,0,0,0,0,0,0,0,1,2,1,0,0,0,0,0,0,1,2,1,0,1,2,1,0,0,0,1,2,1,0,0,1,1,0,1,2,1,0,0,0,0,1,2,3,2,1,1,2,3,3,2,1,2,2,1,0,0,0,1,1,1,0,1,2,5,1,5,5,6,7,2,5,2,4,2,1,0,1,1,1,2,8,1,13,9,18,9,6,9,9,5,-1,-1,-1,-1,-1,-1,-1,-1,-1,-1,-1,-1,-1,-1,-1,-1,-1,-1,-1,-1,-1,-1,-1,-1,-1,-1,-1,-1,-1,-1,-1,-1,-1,-1,-1,-1,-1,-1,-1,-1,-1,-1,-1,-1,-1,-1,-1,-1,-1,-1,-1,-1,-1,-1,-1,-1,-1,-1,-1,-1,-1,-1,-1,-1,-1,-1,-1,-1,-1,-1,-1,-1,-1,-1,-1,-1,-1,-1,-1,-1
-1,-1,-1,-1,-1,-1,-1,-1,-1,-1,-1,-1,-1,-1,-1,-1,-1,-1,-1,-1,-1,-1,-1,-1,-1,-1,-1,-1,-1,-1,-1,-1,-1,-1,-1,-1,-1,-1,-1,-1,-1,-1,-1,-1,-1,-1,-1,-1,-1,-1,-1,-1,-1,-1,-1,-1,-1,-1,-1,-1,-1,-1,-1,-1,-1,-1,-1,-1,-1,-1,-1,-1,-1,-1,-1,-1,-1,-1,-1,-1,-1,-1,-1,-1,-1,-1,-1,-1,8,4,20,4,27,0,12,2,5,3,3,4,4,4,4,6,8,8,7,6,4,4,4,4,6,4,8,7,6,4,5,3,3,3,1,1,4,1,3,7,7,4,3,2,1,4,1,3,2,2,0,5,2,2,6,5,2,1,3,3,5,2,1,1,2,3,3,3,3,3,3,2,1,0,0,0,0,0,0,0,0,0,0,1,2,3,3,2,1,0,0,1,2,1,0,0,0,1,1,0,0,0,0,0,0,0,1,1,0,0,1,1,0,1,2,1,0,1,2,2,3,3,2,1,0,1,2,3,3,2,1,0,0,0,0,0,0,0,1,2,1,0,0,1,1,0,0,0,0,1,2,2,1,0,0,0,1,2,3,3,1,0,0,0,0,0,0,0,1,2,1,0,1,2,1,0,0,0,1,2,1,0,0,1,2,3,3,3,3,3,3,3,1,0,0,0,0,0,1,2,3,2,1,0,1,2,1,0,0,1,2,2,1,0,0,1,1,0,1,2,1,0,0,0,0,1,2,1,1,2,3,3,3,2,2,3,2,1,0,0,0,0,1,1,1,0,1,2,2,0,2,3,6,6,2,6,7,8,6,6,4,3,4,6,2,13,4,7,14,35,7,-1,-1,-1,-1,-1,-1,-1,-1,-1,-1,-1,-1,-1,-1,-1,-1,-1,-1,-1,-1,-1,-1,-1,-1,-1,-1,-1,-1,-1,-1,-1,-1,-1,-1,-1,-1,-1,-1,-1,-1,-1,-1,-1,-1,-1,-1,-1,-1,-1,-1,-1,-1,-1,-1,-1,-1,-1,-1,-1,-1,-1,-1,-1,-1,-1,-1,-1,-1,-1,-1,-1,-1,-1,-1,-1,-1,-1,-1,-1,-1,-1,-1,-1,-1
-1,-1,-1,-1,-1,-1,-1,-1,-1,-1,-1,-1,-1,-1,-1,-1,-1,-1,-1,-1,-1,-1,-1,-1,-1,-1,-1,-1,-1,-1,-1,-1,-1,-1,-1,-1,-1,-1,-1,-1,-1,-1,-1,-1,-1,-1,-1,-1,-1,-1,-1,-1,-1,-1,-1,-1,-1,-1,-1,-1,-1,-1,-1,-1,-1,-1,-1,-1,-1,-1,-1,-1,-1,-1,-1,-1,-1,-1,-1,-1,-1,-1,-1,-1,-1,-1,-1,-1,-1,-1,-1,-1,11,13,13,6,6,0,1,3,3,3,4,6,7,6,5,3,3,3,4,4,3,4,7,8,7,6,4,3,3,2,3,3,5,2,3,7,6,4,4,3,1,2,2,2,4,1,1,2,0,5,7,5,5,1,2,5,3,1,1,1,1,0,0,0,0,0,0,0,0,0,0,0,0,0,0,0,1,2,3,3,3,3,2,1,0,0,1,2,1,0,0,0,0,1,1,0,0,0,0,0,0,0,1,1,0,0,1,1,1,2,1,0,0,1,1,1,2,2,1,0,0,0,0,1,2,3,2,1,0,0,0,0,0,0,1,2,1,0,0,1,1,0,0,0,0,1,2,1,0,0,0,0,1,3,3,2,1,0,0,0,0,0,0,1,2,2,1,0,1,2,1,0,0,0,1,2,1,0,1,2,3,3,3,3,3,3,3,2,1,0,0,0,0,1,2,3,2,1,0,0,1,1,0,0,1,2,2,1,0,0,0,1,1,0,1,2,1,0,0,0,0,1,1,0,1,3,2,1,2,3,3,2,1,0,0,0,1,2,3,3,2,1,1,2,1,1,1,4,5,2,2,6,10,7,7,7,7,6,6,6,12,10,13,2,27,-1,-1,-1,-1,-1,-1,-1,-1,-1,-1,-1,-1,-1,-1,-1,-1,-1,-1,-1,-1,-1,-1,-1,-1,-1,-1,-1,-1,-1,-1,-1,-1,-1,-1,-1,-1,-1,-1,-1,-1,-1,-1,-1,-1,-1,-1,-1,-1,-1,-1,-1,-1,-1,-1,-1,-1,-1,-1,-1,-1,-1,-1,-1,-1,-1,-1,-1,-1,-1,-1,-1,-1,-1,-1,-1,-1,-1,-1,-1,-1,-1,-1,-1,-1,-1,-1
-1,-1,-1,-1,-1,-1,-1,-1,-1,-1,-1,-1,-1,-1,-1,-1,-1,-1,-1,-1,-1,-1,-1,-1,-1,-1,-1,-1,-1,-1,-1,-1,-1,-1,-1,-1,-1,-1,-1,-1,-1,-1,-1,-1,-1,-1,-1,-1,-1,-1,-1,-1,-1,-1,-1,-1,-1,-1,-1,-1,-1,-1,-1,-1,-1,-1,-1,-1,-1,-1,-1,-1,-1,-1,-1,-1,-1,-1,-1,-1,-1,-1,-1,-1,-1,-1,-1,-1,-1,-1,-1,-1,-1,-1,-1,-1,-1,4,3,2,3,4,3,6,3,9,7,4,1,3,5,8,8,5,6,10,2,4,7,6,2,2,6,4,10,10,7,5,2,1,5,2,12,15,15,8,6,10,3,1,2,4,3,5,5,1,0,1,2,3,2,4,1,0,0,0,0,1,2,2,1,0,0,1,2,3,3,3,3,3,3,2,1,0,0,1,2,3,3,2,1,0,0,1,2,3,1,0,0,0,0,0,0,1,2,1,0,1,2,1,1,2,1,0,1,2,1,0,0,0,0,0,0,0,0,1,2,3,2,0,0,0,0,0,0,0,1,1,0,0,0,1,2,0,1,1,0,1,1,1,1,0,2,3,3,1,0,0,0,0,1,1,0,3,4,5,2,1,0,0,1,1,1,2,3,3,3,1,0,0,1,2,1,1,0,0,0,0,0,0,0,0,0,0,1,2,2,1,0,0,1,2,3,1,0,1,2,2,1,0,1,2,3,3,1,1,2,3,1,0,0,1,2,3,1,0,1,1,2,3,3,2,1,0,0,1,2,5,6,5,2,5,6,6,6,2,2,2,3,5,4,1,2,4,4,7,4,3,8,5,1,5,1,12,100,-1,-1,-1,-1,-1,-1,-1,-1,-1,-1,-1,-1,-1,-1,-1,-1,-1,-1,-1,-1,-1,-1,-1,-1,-1,-1,-1,-1,-1,-1,-1,-1,-1,-1,-1,-1,-1,-1,-1,-1,-1,-1,-1,-1,-1,-1,-1,-1,-1,-1,-1,-1,-1,-1,-1,-1,-1,-1,-1,-1,-1,-1,-1,-1,-1,-1,-1,-1,-1,-1,-1,-1,-1,-1,-1,-1,-1,-1,-1,-1,-1,-1,-1,-1,-1,-1,-1,-1
-1,-1,-1,-1,-1,-1,-1,-1,-1,-1,-1,-1,-1,-1,-1,-1,-1,-1,-1,-1,-1,-1,-1,-1,-1,-1,-1,-1,-1,-1,-1,-1,-1,-1,-1,-1,-1,-1,-1,-1,-1,-1,-1,-1,-1,-1,-1,-1,-1,-1,-1,-1,-1,-1,-1,-1,-1,-1,-1,-1,-1,-1,-1,-1,-1,-1,-1,-1,-1,-1,-1,-1,-1,-1,-1,-1,-1,-1,-1,-1,-1,-1,-1,-1,-1,-1,-1,-1,-1,-1,-1,-1,-1,-1,-1,-1,-1,-1,-1,-1,-1,-1,-1,9,10,8,13,20,15,4,2,8,14,14,7,9,13,8,15,15,10,18,15,22,17,12,9,7,4,5,6,19,13,17,10,7,8,7,4,2,3,3,3,4,5,2,1,1,2,3,3,5,1,0,1,2,3,3,3,3,1,0,1,2,3,3,3,3,2,1,0,0,0,0,0,1,3,3,2,1,0,0,1,2,3,2,1,0,0,0,0,0,0,1,2,1,0,1,2,1,2,1,0,0,1,2,1,0,0,0,0,0,0,0,0,1,3,3,2,1,0,0,0,0,0,0,1,1,0,0,0,1,2,1,2,0,0,1,2,1,2,1,3,3,2,1,0,0,1,2,2,4,2,4,7,2,1,0,0,0,1,2,1,2,3,3,2,1,0,1,2,1,4,0,2,2,1,0,0,0,0,0,0,0,1,2,1,0,0,0,1,3,2,1,1,2,2,1,0,0,1,3,3,2,1,1,3,2,1,0,0,1,3,2,1,1,2,1,3,2,1,0,0,0,0,1,3,4,5,5,12,5,3,18,3,6,2,10,3,12,15,6,10,14,15,9,5,8,8,3,-1,-1,-1,-1,-1,-1,-1,-1,-1,-1,-1,-1,-1,-1,-1,-1,-1,-1,-1,-1,-1,-1,-1,-1,-1,-1,-1,-1,-1,-1,-1,-1,-1,-1,-1,-1,-1,-1,-1,-1,-1,-1,-1,-1,-1,-1,-1,-1,-1,-1,-1,-1,-1,-1,-1,-1,-1,-1,-1,-1,-1,-1,-1,-1,-1,-1,-1,-1,-1,-1,-1,-1,-1,-1,-1,-1,-1,-1,-1,-1,-1,-1,-1,-1,-1,-1,-1,-1,-1,-1,-1,-1,-1
-1,-1,-1,-1,-1,-1,-1,-1,-1,-1,-1,-1,-1,-1,-1,-1,-1,-1,-1,-1,-1,-1,-1,-1,-1,-1,-1,-1,-1,-1,-1,-1,-1,-1,-1,-1,-1,-1,-1,-1,-1,-1,-1,-1,-1,-1,-1,-1,-1,-1,-1,-1,-1,-1,-1,-1,-1,-1,-1,-1,-1,-1,-1,-1,-1,-1,-1,-1,-1,-1,-1,-1,-1,-1,-1,-1,-1,-1,-1,-1,-1,-1,-1,-1,-1,-1,-1,-1,-1,-1,-1,-1,-1,-1,-1,-1,-1,-1,-1,-1,-1,-1,-1,-1,-1,-1,-1,-1,20,11,11,20,6,12,8,7,9,8,10,8,9,13,29,13,22,33,16,23,19,10,7,13,8,22,18,10,4,1,2,2,2,3,4,6,6,4,2,0,3,3,1,1,2,3,3,3,3,2,1,1,2,2,3,2,1,0,0,0,0,0,0,0,1,2,3,3,1,0,0,0,1,2,3,2,1,0,0,0,0,0,0,1,2,3,1,0,1,2,1,1,2,1,0,0,1,1,0,0,0,1,2,3,3,3,3,3,1,0,0,0,0,0,0,1,2,3,3,1,0,0,0,0,1,2,2,1,0,1,1,1,1,1,1,0,1,1,1,0,1,3,5,3,2,4,5,2,1,0,0,1,1,2,3,3,5,3,3,2,1,1,2,2,2,1,3,3,1,0,0,0,0,0,1,2,3,1,0,0,0,1,2,1,0,1,2,2,1,0,0,1,2,1,0,0,0,1,1,0,0,0,0,1,1,0,1,2,2,1,1,0,0,0,0,0,0,1,1,4,12,4,3,4,9,9,12,2,12,4,22,12,10,21,27,28,11,8,5,-1,-1,-1,-1,-1,-1,-1,-1,-1,-1,-1,-1,-1,-1,-1,-1,-1,-1,-1,-1,-1,-1,-1,-1,-1,-1,-1,-1,-1,-1,-1,-1,-1,-1,-1,-1,-1,-1,-1,-1,-1,-1,-1,-1,-1,-1,-1,-1,-1,-1,-1,-1,-1,-1,-1,-1,-1,-1,-1,-1,-1,-1,-1,-1,-1,-1,-1,-1,-1,-1,-1,-1,-1,-1,-1,-1,-1,-1,-1,-1,-1,-1,-1,-1,-1,-1,-1,-1,-1,-1,-1,-1,-1,-1,-1,-1
-1,-1,-1,-1,-1,-1,-1,-1,-1,-1,-1,-1,-1,-1,-1,-1,-1,-1,-1,-1,-1,-1,-1,-1,-1,-1,-1,-1,-1,-1,-1,-1,-1,-1,-1,-1,-1,-1,-1,-1,-1,-1,-1,-1,-1,-1,-1,-1,-1,-1,-1,-1,-1,-1,-1,-1,-1,-1,-1,-1,-1,-1,-1,-1,-1,-1,-1,-1,-1,-1,-1,-1,-1,-1,-1,-1,-1,-1,-1,-1,-1,-1,-1,-1,-1,-1,-1,-1,-1,-1,-1,-1,-1,-1,-1,-1,-1,-1,-1,-1,-1,-1,-1,-1,-1,-1,-1,-1,-1,-1,-1,-1,19,4,7,12,14,9,16,24,18,26,16,36,26,22,25,18,10,17,5,7,15,31,23,7,10,7,4,4,3,4,4,6,4,3,2,1,3,3,1,2,3,3,2,1,0,0,0,1,3,3,2,1,0,0,0,0,0,1,2,3,3,3,3,2,1,0,1,2,3,3,2,1,0,0,0,0,0,0,0,1,3,2,1,1,2,2,1,1,1,0,0,1,2,1,0,0,1,2,3,3,3,3,3,2,2,1,0,0,0,0,1,2,3,3,2,1,0,0,0,0,1,2,1,0,1,2,2,1,1,1,2,1,0,2,1,2,2,3,2,1,2,4,6,6,5,2,0,2,3,3,2,4,2,3,3,3,2,1,2,2,2,0,1,1,1,0,0,1,2,3,3,3,2,1,0,0,0,1,2,1,0,1,2,1,0,0,0,1,2,1,0,0,0,1,1,0,0,1,2,5,2,3,3,2,1,2,1,0,0,0,0,0,1,2,1,5,12,2,6,14,2,15,12,2,5,16,5,12,11,28,19,-1,-1,-1,-1,-1,-1,-1,-1,-1,-1,-1,-1,-1,-1,-1,-1,-1,-1,-1,-1,-1,-1,-1,-1,-1,-1,-1,-1,-1,-1,-1,-1,-1,-1,-1,-1,-1,-1,-1,-1,-1,-1,-1,-1,-1,-1,-1,-1,-1,-1,-1,-1,-1,-1,-1,-1,-1,-1,-1,-1,-1,-1,-1,-1,-1,-1,-1,-1,-1,-1,-1,-1,-1,-1,-1,-1,-1,-1,-1,-1,-1,-1,-1,-1,-1,-1,-1,-1,-1,-1,-1,-1,-1,-1,-1,-1,-1,-1,-1,-1
-1,-1,-1,-1,-1,-1,-1,-1,-1,-1,-1,-1,-1,-1,-1,-1,-1,-1,-1,-1,-1,-1,-1,-1,-1,-1,-1,-1,-1,-1,-1,-1,-1,-1,-1,-1,-1,-1,-1,-1,-1,-1,-1,-1,-1,-1,-1,-1,-1,-1,-1,-1,-1,-1,-1,-1,-1,-1,-1,-1,-1,-1,-1,-1,-1,-1,-1,-1,-1,-1,-1,-1,-1,-1,-1,-1,-1,-1,-1,-1,-1,-1,-1,-1,-1,-1,-1,-1,-1,-1,-1,-1,-1,-1,-1,-1,-1,-1,-1,-1,-1,-1,-1,-1,-1,-1,-1,-1,-1,-1,-1,-1,-1,-1,-1,-1,-1,5,13,19,27,25,32,12,18,9,20,24,25,24,16,10,16,17,12,13,13,8,5,4,4,3,5,2,5,2,1,2,3,6,4,3,2,2,1,0,0,0,0,1,1,1,0,0,1,2,3,3,3,3,3,3,2,1,2,3,3,3,3,3,2,1,0,0,0,0,0,0,1,2,3,3,1,0,1,2,2,1,0,1,1,0,0,1,2,1,0,1,2,2,1,0,0,0,0,1,4,1,0,0,0,0,1,2,1,0,0,0,0,0,0,0,0,1,2,1,1,2,1,1,4,1,3,6,4,4,4,4,6,2,3,3,3,3,3,6,6,4,3,2,2,2,3,2,2,3,3,3,3,4,3,5,2,0,1,1,1,0,1,2,3,3,2,1,0,0,0,0,1,2,1,0,1,2,1,0,0,0,1,2,1,0,0,1,2,3,1,0,1,2,3,2,5,3,2,1,2,2,1,0,0,0,1,2,3,2,1,3,3,10,6,5,9,13,6,5,10,2,13,14,25,100,-1,-1,-1,-1,-1,-1,-1,-1,-1,-1,-1,-1,-1,-1,-1,-1,-1,-1,-1,-1,-1,-1,-1,-1,-1,-1,-1,-1,-1,-1,-1,-1,-1,-1,-1,-1,-1,-1,-1,-1,-1,-1,-1,-1,-1,-1,-1,-1,-1,-1,-1,-1,-1,-1,-1,-1,-1,-1,-1,-1,-1,-1,-1,-1,-1,-1,-1,-1,-1,-1,-1,-1,-1,-1,-1,-1,-1,-1,-1,-1,-1,-1,-1,-1,-1,-1,-1,-1,-1,-1,-1,-1,-1,-1,-1,-1,-1,-1,-1,-1,-1
-1,-1,-1,-1,-1,-1,-1,-1,-1,-1,-1,-1,-1,-1,-1,-1,-1,-1,-1,-1,-1,-1,-1,-1,-1,-1,-1,-1,-1,-1,-1,-1,-1,-1,-1,-1,-1,-1,-1,-1,-1,-1,-1,-1,-1,-1,-1,-1,-1,-1,-1,-1,-1,-1,-1,-1,-1,-1,-1,-1,-1,-1,-1,-1,-1,-1,-1,-1,-1,-1,-1,-1,-1,-1,-1,-1,-1,-1,-1,-1,-1,-1,-1,-1,-1,-1,-1,-1,-1,-1,-1,-1,-1,-1,-1,-1,-1,-1,-1,-1,-1,-1,-1,-1,-1,-1,-1,-1,-1,-1,-1,-1,-1,-1,-1,-1,-1,-1,-1,-1,-1,-1,6,13,11,14,14,32,20,23,17,17,26,15,12,15,8,8,7,6,3,2,2,5,2,2,3,7,6,5,6,3,4,3,1,0,0,0,0,0,0,0,1,2,3,3,3,3,3,2,1,2,3,3,3,3,3,3,2,1,0,0,1,1,1,0,1,2,3,3,3,2,1,1,2,2,1,1,2,3,1,0,1,2,1,0,0,1,2,1,1,1,1,1,2,2,6,2,3,3,3,3,2,5,3,3,3,2,1,0,0,0,1,2,3,3,1,1,0,1,5,3,6,7,7,7,8,7,4,3,7,6,5,4,3,1,6,6,4,4,3,1,0,1,3,3,4,4,4,4,6,7,3,3,5,3,1,0,1,2,1,0,0,0,1,2,3,3,3,2,1,0,1,2,1,0,0,0,1,2,1,0,1,2,3,2,1,0,1,2,1,1,1,1,2,3,2,1,0,0,0,1,2,3,2,1,0,0,1,7,12,14,22,10,6,5,4,13,12,-1,-1,-1,-1,-1,-1,-1,-1,-1,-1,-1,-1,-1,-1,-1,-1,-1,-1,-1,-1,-1,-1,-1,-1,-1,-1,-1,-1,-1,-1,-1,-1,-1,-1,-1,-1,-1,-1,-1,-1,-1,-1,-1,-1,-1,-1,-1,-1,-1,-1,-1,-1,-1,-1,-1,-1,-1,-1,-1,-1,-1,-1,-1,-1,-1,-1,-1,-1,-1,-1,-1,-1,-1,-1,-1,-1,-1,-1,-1,-1,-1,-1,-1,-1,-1,-1,-1,-1,-1,-1,-1,-1,-1,-1,-1,-1,-1,-1,-1,-1,-1,-1,-1,-1
-1,-1,-1,-1,-1,-1,-1,-1,-1,-1,-1,-1,-1,-1,-1,-1,-1,-1,-1,-1,-1,-1,-1,-1,-1,-1,-1,-1,-1,-1,-1,-1,-1,-1,-1,-1,-1,-1,-1,-1,-1,-1,-1,-1,-1,-1,-1,-1,-1,-1,-1,-1,-1,-1,-1,-1,-1,-1,-1,-1,-1,-1,-1,-1,-1,-1,-1,-1,-1,-1,-1,-1,-1,-1,-1,-1,-1,-1,-1,-1,-1,-1,-1,-1,-1,-1,-1,-1,-1,-1,-1,-1,-1,-1,-1,-1,-1,-1,-1,-1,-1,-1,-1,-1,-1,-1,-1,-1,-1,-1,-1,-1,-1,-1,-1,-1,-1,-1,-1,-1,-1,-1,-1,-1,-1,-1,100,16,21,14,18,10,35,6,8,4,6,6,6,4,4,4,4,4,5,5,4,7,7,6,2,4,3,3,1,0,0,0,0,0,1,2,3,3,2,1,0,1,2,3,3,3,3,2,1,0,0,0,0,0,1,2,3,3,2,2,3,3,2,2,3,3,3,3,2,1,1,2,3,2,1,0,1,2,1,0,0,1,1,1,2,3,1,1,3,6,8,5,7,8,8,7,5,7,6,4,4,4,7,6,5,5,6,4,6,4,3,5,5,4,8,7,7,7,7,9,9,11,7,7,11,8,9,7,6,5,2,3,4,6,7,8,6,5,1,2,3,3,3,4,6,7,6,4,4,2,1,1,2,1,0,0,1,2,3,3,3,3,2,1,0,1,2,1,0,0,0,1,2,1,0,0,1,2,1,0,0,0,1,1,0,1,1,2,3,2,1,0,0,0,0,1,2,1,0,0,0,2,5,13,1,4,2,5,9,5,-1,-1,-1,-1,-1,-1,-1,-1,-1,-1,-1,-1,-1,-1,-1,-1,-1,-1,-1,-1,-1,-1,-1,-1,-1,-1,-1,-1,-1,-1,-1,-1,-1,-1,-1,-1,-1,-1,-1,-1,-1,-1,-1,-1,-1,-1,-1,-1,-1,-1,-1,-1,-1,-1,-1,-1,-1,-1,-1,-1,-1,-1,-1,-1,-1,-1,-1,-1,-1,-1,-1,-1,-1,-1,-1,-1,-1,-1,-1,-1,-1,-1,-1,-1,-1,-1,-1,-1,-1,-1,-1,-1,-1,-1,-1,-1,-1,-1,-1,-1,-1,-1,-1,-1,-1,-1,-1
-1,-1,-1,-1,-1,-1,-1,-1,-1,-1,-1,-1,-1,-1,-1,-1,-1,-1,-1,-1,-1,-1,-1,-1,-1,-1,-1,-1,-1,-1,-1,-1,-1,-1,-1,-1,-1,-1,-1,-1,-1,-1,-1,-1,-1,-1,-1,-1,-1,-1,-1,-1,-1,-1,-1,-1,-1,-1,-1,-1,-1,-1,-1,-1,-1,-1,-1,-1,-1,-1,-1,-1,-1,-1,-1,-1,-1,-1,-1,-1,-1,-1,-1,-1,-1,-1,-1,-1,-1,-1,-1,-1,-1,-1,-1,-1,-1,-1,-1,-1,-1,-1,-1,-1,-1,-1,-1,-1,-1,-1,-1,-1,-1,-1,-1,-1,-1,-1,-1,-1,-1,-1,-1,-1,-1,-1,-1,-1,-1,-1,-1,-1,10,13,20,6,5,2,1,2,3,4,6,6,4,6,4,4,6,3,1,2,1,2,1,1,2,3,3,3,3,3,2,1,0,0,0,1,3,3,2,1,0,0,0,0,0,0,0,1,2,3,2,2,3,3,2,1,2,3,3,3,3,2,1,0,1,2,1,0,0,0,1,1,0,0,1,2,1,1,2,2,1,3,2,4,6,5,8,8,8,8,5,7,8,7,6,6,7,7,4,4,6,6,6,4,4,6,6,8,7,7,10,8,5,7,8,12,8,11,12,10,13,9,8,7,2,1,3,5,8,8,8,7,4,2,1,2,4,4,4,6,4,4,3,2,1,1,2,1,0,0,1,3,2,1,0,0,0,0,0,1,2,1,0,0,0,1,2,1,0,1,2,1,0,0,0,0,1,1,1,2,1,2,1,1,1,1,0,0,0,1,1,0,0,0,0,3,6,8,3,-1,-1,-1,-1,-1,-1,-1,-1,-1,-1,-1,-1,-1,-1,-1,-1,-1,-1,-1,-1,-1,-1,-1,-1,-1,-1,-1,-1,-1,-1,-1,-1,-1,-1,-1,-1,-1,-1,-1,-1,-1,-1,-1,-1,-1,-1,-1,-1,-1,-1,-1,-1,-1,-1,-1,-1,-1,-1,-1,-1,-1,-1,-1,-1,-1,-1,-1,-1,-1,-1,-1,-1,-1,-1,-1,-1,-1,-1,-1,-1,-1,-1,-1,-1,-1,-1,-1,-1,-1,-1,-1,-1,-1,-1,-1,-1,-1,-1,-1,-1,-1,-1,-1,-1,-1,-1,-1,-1,-1,-1,-1,-1
-1,-1,-1,-1,-1,-1,-1,-1,-1,-1,-1,-1,-1,-1,-1,-1,-1,-1,-1,-1,-1,-1,-1,-1,-1,-1,-1,-1,-1,-1,-1,-1,-1,-1,-1,-1,-1,-1,-1,-1,-1,-1,-1,-1,-1,-1,-1,-1,-1,-1,-1,-1,-1,-1,-1,-1,-1,-1,-1,-1,-1,-1,-1,-1,-1,-1,-1,-1,-1,-1,-1,-1,-1,-1,-1,-1,-1,-1,-1,-1,-1,-1,-1,-1,-1,-1,-1,-1,-1,-1,-1,-1,-1,-1,-1,-1,-1,-1,-1,-1,-1,-1,-1,-1,-1,-1,-1,-1,-1,-1,-1,-1,-1,-1,-1,-1,-1,-1,-1,-1,-1,-1,-1,-1,-1,-1,-1,-1,-1,-1,-1,-1,-1,-1,-1,-1,-1,4,6,8,13,11,10,11,7,7,8,4,0,5,2,2,2,1,4,3,10,3,5,5,0,1,7,6,2,2,0,5,3,1,1,3,2,9,6,6,6,1,2,3,2,1,1,1,1,1,0,1,2,1,0,0,0,0,0,1,2,1,0,1,2,3,5,2,1,1,2,6,6,3,5,3,1,2,4,6,6,7,6,4,3,3,4,7,7,8,6,4,3,2,2,3,3,3,4,2,4,9,11,8,11,6,5,5,4,4,3,6,7,10,13,10,14,9,8,9,6,3,3,6,7,8,5,6,3,2,3,3,3,3,2,4,3,3,2,1,2,3,1,0,0,0,1,2,1,0,0,0,0,0,0,1,1,0,0,1,2,3,1,1,2,3,2,1,1,1,5,3,8,6,5,4,1,3,1,1,4,2,2,2,1,1,2,1,6,6,6,-1,-1,-1,-1,-1,-1,-1,-1,-1,-1,-1,-1,-1,-1,-1,-1,-1,-1,-1,-1,-1,-1,-1,-1,-1,-1,-1,-1,-1,-1,-1,-1,-1,-1,-1,-1,-1,-1,-1,-1,-1,-1,-1,-1,-1,-1,-1,-1,-1,-1,-1,-1,-1,-1,-1,-1,-1,-1,-1,-1,-1,-1,-1,-1,-1,-1,-1,-1,-1,-1,-1,-1,-1,-1,-1,-1,-1,-1,-1,-1,-1,-1,-1,-1,-1,-1,-1,-1,-1,-1,-1,-1,-1,-1,-1,-1,-1,-1,-1,-1,-1,-1,-1,-1,-1,-1,-1,-1,-1,-1,-1,-1,-1,-1,-1,-1
-1,-1,-1,-1,-1,-1,-1,-1,-1,-1,-1,-1,-1,-1,-1,-1,-1,-1,-1,-1,-1,-1,-1,-1,-1,-1,-1,-1,-1,-1,-1,-1,-1,-1,-1,-1,-1,-1,-1,-1,-1,-1,-1,-1,-1,-1,-1,-1,-1,-1,-1,-1,-1,-1,-1,-1,-1,-1,-1,-1,-1,-1,-1,-1,-1,-1,-1,-1,-1,-1,-1,-1,-1,-1,-1,-1,-1,-1,-1,-1,-1,-1,-1,-1,-1,-1,-1,-1,-1,-1,-1,-1,-1,-1,-1,-1,-1,-1,-1,-1,-1,-1,-1,-1,-1,-1,-1,-1,-1,-1,-1,-1,-1,-1,-1,-1,-1,-1,-1,-1,-1,-1,-1,-1,-1,-1,-1,-1,-1,-1,-1,-1,-1,-1,-1,-1,-1,-1,-1,-1,-1,100,19,8,7,15,5,5,5,10,6,1,2,1,2,9,3,14,7,2,7,1,14,22,4,4,1,6,10,2,5,12,10,2,14,13,6,1,3,2,1,0,0,2,0,0,1,2,1,0,0,0,0,0,0,1,2,1,0,0,2,3,2,4,0,1,5,7,8,6,6,4,6,6,6,7,5,7,6,4,3,5,3,7,4,6,6,4,4,4,6,8,8,6,5,6,4,7,10,10,8,7,6,8,11,12,11,7,7,8,9,7,5,3,6,9,8,6,4,3,6,8,3,2,3,3,2,1,0,1,3,2,1,1,1,2,4,2,1,0,0,0,1,2,1,0,0,0,0,0,1,2,1,0,0,1,3,2,1,1,3,2,1,1,1,0,4,11,9,13,13,6,8,2,7,8,5,5,4,7,1,11,8,3,-1,-1,-1,-1,-1,-1,-1,-1,-1,-1,-1,-1,-1,-1,-1,-1,-1,-1,-1,-1,-1,-1,-1,-1,-1,-1,-1,-1,-1,-1,-1,-1,-1,-1,-1,-1,-1,-1,-1,-1,-1,-1,-1,-1,-1,-1,-1,-1,-1,-1,-1,-1,-1,-1,-1,-1,-1,-1,-1,-1,-1,-1,-1,-1,-1,-1,-1,-1,-1,-1,-1,-1,-1,-1,-1,-1,-1,-1,-1,-1,-1,-1,-1,-1,-1,-1,-1,-1,-1,-1,-1,-1,-1,-1,-1,-1,-1,-1,-1,-1,-1,-1,-1,-1,-1,-1,-1,-1,-1,-1,-1,-1,-1,-1,-1,-1,-1,-1,-1
-1,-1,-1,-1,-1,-1,-1,-1,-1,-1,-1,-1,-1,-1,-1,-1,-1,-1,-1,-1,-1,-1,-1,-1,-1,-1,-1,-1,-1,-1,-1,-1,-1,-1,-1,-1,-1,-1,-1,-1,-1,-1,-1,-1,-1,-1,-1,-1,-1,-1,-1,-1,-1,-1,-1,-1,-1,-1,-1,-1,-1,-1,-1,-1,-1,-1,-1,-1,-1,-1,-1,-1,-1,-1,-1,-1,-1,-1,-1,-1,-1,-1,-1,-1,-1,-1,-1,-1,-1,-1,-1,-1,-1,-1,-1,-1,-1,-1,-1,-1,-1,-1,-1,-1,-1,-1,-1,-1,-1,-1,-1,-1,-1,-1,-1,-1,-1,-1,-1,-1,-1,-1,-1,-1,-1,-1,-1,-1,-1,-1,-1,-1,-1,-1,-1,-1,-1,-1,-1,-1,-1,-1,-1,-1,-1,-1,-1,2,7,21,7,13,7,8,13,11,12,1,4,7,11,4,20,8,20,13,11,3,18,6,4,8,17,13,12,14,6,1,1,0,0,0,1,1,1,0,1,2,1,0,0,0,0,0,0,1,1,0,0,1,2,2,1,1,1,2,1,3,5,4,8,8,9,7,6,4,3,4,4,4,4,7,4,3,4,6,6,6,7,5,7,11,12,8,9,9,8,7,4,4,6,5,8,9,13,13,13,13,11,7,4,1,1,1,4,7,8,9,8,7,3,2,2,2,1,1,0,0,0,1,1,0,1,0,1,2,2,3,2,1,0,0,0,1,1,0,0,0,0,1,2,2,1,1,2,3,1,0,1,2,1,0,0,6,7,9,8,9,14,5,5,8,2,6,20,5,8,12,5,11,1,100,-1,-1,-1,-1,-1,-1,-1,-1,-1,-1,-1,-1,-1,-1,-1,-1,-1,-1,-1,-1,-1,-1,-1,-1,-1,-1,-1,-1,-1,-1,-1,-1,-1,-1,-1,-1,-1,-1,-1,-1,-1,-1,-1,-1,-1,-1,-1,-1,-1,-1,-1,-1,-1,-1,-1,-1,-1,-1,-1,-1,-1,-1,-1,-1,-1,-1,-1,-1,-1,-1,-1,-1,-1,-1,-1,-1,-1,-1,-1,-1,-1,-1,-1,-1,-1,-1,-1,-1,-1,-1,-1,-1,-1,-1,-1,-1,-1,-1,-1,-1,-1,-1,-1,-1,-1,-1,-1,-1,-1,-1,-1,-1,-1,-1,-1,-1,-1,-1,-1,-1,-1
-1,-1,-1,-1,-1,-1,-1,-1,-1,-1,-1,-1,-1,-1,-1,-1,-1,-1,-1,-1,-1,-1,-1,-1,-1,-1,-1,-1,-1,-1,-1,-1,-1,-1,-1,-1,-1,-1,-1,-1,-1,-1,-1,-1,-1,-1,-1,-1,-1,-1,-1,-1,-1,-1,-1,-1,-1,-1,-1,-1,-1,-1,-1,-1,-1,-1,-1,-1,-1,-1,-1,-1,-1,-1,-1,-1,-1,-1,-1,-1,-1,-1,-1,-1,-1,-1,-1,-1,-1,-1,-1,-1,-1,-1,-1,-1,-1,-1,-1,-1,-1,-1,-1,-1,-1,-1,-1,-1,-1,-1,-1,-1,-1,-1,-1,-1,-1,-1,-1,-1,-1,-1,-1,-1,-1,-1,-1,-1,-1,-1,-1,-1,-1,-1,-1,-1,-1,-1,-1,-1,-1,-1,-1,-1,-1,-1,-1,-1,-1,-1,-1,5,5,6,24,1,9,10,14,16,11,10,11,22,10,16,9,16,8,14,13,10,10,9,8,6,6,1,1,0,0,0,0,1,2,3,3,1,0,0,0,0,0,0,1,2,1,0,0,0,1,2,1,0,1,2,1,1,2,4,7,9,9,5,4,3,2,1,4,1,3,4,5,3,3,5,4,6,7,7,5,10,11,8,9,8,8,8,6,4,5,2,5,6,8,8,8,11,11,7,3,1,1,3,4,6,8,8,8,8,4,1,1,5,3,3,3,2,1,1,1,0,1,0,0,0,1,2,2,0,0,0,0,1,1,0,0,1,2,3,2,1,2,3,3,2,1,1,2,2,1,1,2,2,20,6,3,5,7,2,8,13,6,13,11,14,20,4,-1,-1,-1,-1,-1,-1,-1,-1,-1,-1,-1,-1,-1,-1,-1,-1,-1,-1,-1,-1,-1,-1,-1,-1,-1,-1,-1,-1,-1,-1,-1,-1,-1,-1,-1,-1,-1,-1,-1,-1,-1,-1,-1,-1,-1,-1,-1,-1,-1,-1,-1,-1,-1,-1,-1,-1,-1,-1,-1,-1,-1,-1,-1,-1,-1,-1,-1,-1,-1,-1,-1,-1,-1,-1,-1,-1,-1,-1,-1,-1,-1,-1,-1,-1,-1,-1,-1,-1,-1,-1,-1,-1,-1,-1,-1,-1,-1,-1,-1,-1,-1,-1,-1,-1,-1,-1,-1,-1,-1,-1,-1,-1,-1,-1,-1,-1,-1,-1,-1,-1,-1,-1,-1,-1,-1
-1,-1,-1,-1,-1,-1,-1,-1,-1,-1,-1,-1,-1,-1,-1,-1,-1,-1,-1,-1,-1,-1,-1,-1,-1,-1,-1,-1,-1,-1,-1,-1,-1,-1,-1,-1,-1,-1,-1,-1,-1,-1,-1,-1,-1,-1,-1,-1,-1,-1,-1,-1,-1,-1,-1,-1,-1,-1,-1,-1,-1,-1,-1,-1,-1,-1,-1,-1,-1,-1,-1,-1,-1,-1,-1,-1,-1,-1,-1,-1,-1,-1,-1,-1,-1,-1,-1,-1,-1,-1,-1,-1,-1,-1,-1,-1,-1,-1,-1,-1,-1,-1,-1,-1,-1,-1,-1,-1,-1,-1,-1,-1,-1,-1,-1,-1,-1,-1,-1,-1,-1,-1,-1,-1,-1,-1,-1,-1,-1,-1,-1,-1,-1,-1,-1,-1,-1,-1,-1,-1,-1,-1,-1,-1,-1,-1,-1,-1,-1,-1,-1,-1,-1,-1,-1,-1,14,12,22,4,2,22,9,17,10,17,4,22,27,5,13,9,16,17,15,6,2,3,1,0,0,0,0,1,3,3,2,1,0,0,0,0,0,0,1,2,1,0,1,2,3,3,1,0,1,1,1,1,3,4,4,7,7,4,4,3,1,1,4,1,1,1,1,1,1,1,2,3,5,6,4,7,11,7,7,8,7,5,7,4,1,1,0,1,2,3,3,6,6,7,2,2,1,2,3,4,4,6,4,5,2,0,1,2,3,3,3,3,2,1,1,1,2,1,0,0,1,2,2,1,0,1,2,3,1,1,2,3,3,2,1,2,3,2,1,2,3,3,2,1,1,2,3,2,19,11,5,10,4,8,5,7,4,14,10,-1,-1,-1,-1,-1,-1,-1,-1,-1,-1,-1,-1,-1,-1,-1,-1,-1,-1,-1,-1,-1,-1,-1,-1,-1,-1,-1,-1,-1,-1,-1,-1,-1,-1,-1,-1,-1,-1,-1,-1,-1,-1,-1,-1,-1,-1,-1,-1,-1,-1,-1,-1,-1,-1,-1,-1,-1,-1,-1,-1,-1,-1,-1,-1,-1,-1,-1,-1,-1,-1,-1,-1,-1,-1,-1,-1,-1,-1,-1,-1,-1,-1,-1,-1,-1,-1,-1,-1,-1,-1,-1,-1,-1,-1,-1,-1,-1,-1,-1,-1,-1,-1,-1,-1,-1,-1,-1,-1,-1,-1,-1,-1,-1,-1,-1,-1,-1,-1,-1,-1,-1,-1,-1,-1,-1,-1,-1,-1
-1,-1,-1,-1,-1,-1,-1,-1,-1,-1,-1,-1,-1,-1,-1,-1,-1,-1,-1,-1,-1,-1,-1,-1,-1,-1,-1,-1,-1,-1,-1,-1,-1,-1,-1,-1,-1,-1,-1,-1,-1,-1,-1,-1,-1,-1,-1,-1,-1,-1,-1,-1,-1,-1,-1,-1,-1,-1,-1,-1,-1,-1,-1,-1,-1,-1,-1,-1,-1,-1,-1,-1,-1,-1,-1,-1,-1,-1,-1,-1,-1,-1,-1,-1,-1,-1,-1,-1,-1,-1,-1,-1,-1,-1,-1,-1,-1,-1,-1,-1,-1,-1,-1,-1,-1,-1,-1,-1,-1,-1,-1,-1,-1,-1,-1,-1,-1,-1,-1,-1,-1,-1,-1,-1,-1,-1,-1,-1,-1,-1,-1,-1,-1,-1,-1,-1,-1,-1,-1,-1,-1,-1,-1,-1,-1,-1,-1,-1,-1,-1,-1,-1,-1,-1,-1,-1,-1,-1,-1,-1,-1,-1,4,12,8,6,23,14,25,15,23,20,20,10,1,2,1,2,1,0,0,0,1,2,1,0,0,0,0,0,0,0,0,1,2,1,0,1,2,3,3,2,1,0,1,1,3,3,2,3,3,3,3,3,3,3,3,3,2,3,3,2,0,3,3,2,1,0,1,2,4,5,4,0,3,7,8,7,7,6,7,7,5,3,3,2,1,1,2,4,2,1,0,0,1,4,1,3,2,2,2,1,1,3,3,3,2,1,2,1,1,1,2,1,0,0,1,2,2,3,3,3,3,2,2,3,3,2,2,3,3,2,1,2,3,3,3,2,1,1,2,2,1,6,11,20,13,11,9,5,1,5,-1,-1,-1,-1,-1,-1,-1,-1,-1,-1,-1,-1,-1,-1,-1,-1,-1,-1,-1,-1,-1,-1,-1,-1,-1,-1,-1,-1,-1,-1,-1,-1,-1,-1,-1,-1,-1,-1,-1,-1,-1,-1,-1,-1,-1,-1,-1,-1,-1,-1,-1,-1,-1,-1,-1,-1,-1,-1,-1,-1,-1,-1,-1,-1,-1,-1,-1,-1,-1,-1,-1,-1,-1,-1,-1,-1,-1,-1,-1,-1,-1,-1,-1,-1,-1,-1,-1,-1,-1,-1,-1,-1,-1,-1,-1,-1,-1,-1,-1,-1,-1,-1,-1,-1,-1,-1,-1,-1,-1,-1,-1,-1,-1,-1,-1,-1,-1,-1,-1,-1,-1,-1,-1,-1,-1,-1,-1,-1,-1,-1,-1
-1,-1,-1,-1,-1,-1,-1,-1,-1,-1,-1,-1,-1,-1,-1,-1,-1,-1,-1,-1,-1,-1,-1,-1,-1,-1,-1,-1,-1,-1,-1,-1,-1,-1,-1,-1,-1,-1,-1,-1,-1,-1,-1,-1,-1,-1,-1,-1,-1,-1,-1,-1,-1,-1,-1,-1,-1,-1,-1,-1,-1,-1,-1,-1,-1,-1,-1,-1,-1,-1,-1,-1,-1,-1,-1,-1,-1,-1,-1,-1,-1,-1,-1,-1,-1,-1,-1,-1,-1,-1,-1,-1,-1,-1,-1,-1,-1,-1,-1,-1,-1,-1,-1,-1,-1,-1,-1,-1,-1,-1,-1,-1,-1,-1,-1,-1,-1,-1,-1,-1,-1,-1,-1,-1,-1,-1,-1,-1,-1,-1,-1,-1,-1,-1,-1,-1,-1,-1,-1,-1,-1,-1,-1,-1,-1,-1,-1,-1,-1,-1,-1,-1,-1,-1,-1,-1,-1,-1,-1,-1,-1,-1,-1,-1,-1,20,10,23,30,5,31,5,4,2,1,2,2,0,0,0,0,1,2,2,1,0,0,0,0,0,0,0,0,1,2,1,0,1,2,1,0,0,0,1,3,4,6,7,6,4,3,2,2,3,4,4,6,4,4,6,7,5,4,4,2,3,1,1,2,3,3,2,0,1,3,4,7,8,8,11,10,9,7,4,3,3,0,3,4,4,3,2,2,2,1,7,7,4,2,2,1,1,3,4,4,3,3,2,1,0,1,1,3,2,3,2,1,1,3,4,3,3,3,3,3,3,3,3,3,3,2,1,2,3,2,1,0,0,1,2,2,1,0,5,15,5,6,4,13,100,-1,-1,-1,-1,-1,-1,-1,-1,-1,-1,-1,-1,-1,-1,-1,-1,-1,-1,-1,-1,-1,-1,-1,-1,-1,-1,-1,-1,-1,-1,-1,-1,-1,-1,-1,-1,-1,-1,-1,-1,-1,-1,-1,-1,-1,-1,-1,-1,-1,-1,-1,-1,-1,-1,-1,-1,-1,-1,-1,-1,-1,-1,-1,-1,-1,-1,-1,-1,-1,-1,-1,-1,-1,-1,-1,-1,-1,-1,-1,-1,-1,-1,-1,-1,-1,-1,-1,-1,-1,-1,-1,-1,-1,-1,-1,-1,-1,-1,-1,-1,-1,-1,-1,-1,-1,-1,-1,-1,-1,-1,-1,-1,-1,-1,-1,-1,-1,-1,-1,-1,-1,-1,-1,-1,-1,-1,-1,-1,-1,-1,-1,-1,-1
-1,-1,-1,-1,-1,-1,-1,-1,-1,-1,-1,-1,-1,-1,-1,-1,-1,-1,-1,-1,-1,-1,-1,-1,-1,-1,-1,-1,-1,-1,-1,-1,-1,-1,-1,-1,-1,-1,-1,-1,-1,-1,-1,-1,-1,-1,-1,-1,-1,-1,-1,-1,-1,-1,-1,-1,-1,-1,-1,-1,-1,-1,-1,-1,-1,-1,-1,-1,-1,-1,-1,-1,-1,-1,-1,-1,-1,-1,-1,-1,-1,-1,-1,-1,-1,-1,-1,-1,-1,-1,-1,-1,-1,-1,-1,-1,-1,-1,-1,-1,-1,-1,-1,-1,-1,-1,-1,-1,-1,-1,-1,-1,-1,-1,-1,-1,-1,-1,-1,-1,-1,-1,-1,-1,-1,-1,-1,-1,-1,-1,-1,-1,-1,-1,-1,-1,-1,-1,-1,-1,-1,-1,-1,-1,-1,-1,-1,-1,-1,-1,-1,-1,-1,-1,-1,-1,-1,-1,-1,-1,-1,-1,-1,-1,-1,-1,-1,-1,-1,-1,17,5,2,5,5,2,1,0,0,0,0,1,2,1,0,0,0,0,0,0,0,0,1,2,1,0,0,1,1,0,0,1,2,5,4,6,8,6,8,4,3,3,2,3,4,8,6,4,4,6,8,9,7,4,2,1,1,1,2,1,2,3,1,1,2,4,8,9,8,8,12,7,3,3,3,2,2,4,4,3,3,2,3,3,1,5,10,3,1,2,3,5,4,4,3,2,1,2,1,0,1,1,3,5,3,3,2,1,1,3,3,3,3,2,2,3,3,2,1,0,1,2,2,1,0,0,0,0,1,2,1,0,1,2,13,-1,-1,-1,-1,-1,-1,-1,-1,-1,-1,-1,-1,-1,-1,-1,-1,-1,-1,-1,-1,-1,-1,-1,-1,-1,-1,-1,-1,-1,-1,-1,-1,-1,-1,-1,-1,-1,-1,-1,-1,-1,-1,-1,-1,-1,-1,-1,-1,-1,-1,-1,-1,-1,-1,-1,-1,-1,-1,-1,-1,-1,-1,-1,-1,-1,-1,-1,-1,-1,-1,-1,-1,-1,-1,-1,-1,-1,-1,-1,-1,-1,-1,-1,-1,-1,-1,-1,-1,-1,-1,-1,-1,-1,-1,-1,-1,-1,-1,-1,-1,-1,-1,-1,-1,-1,-1,-1,-1,-1,-1,-1,-1,-1,-1,-1,-1,-1,-1,-1,-1,-1,-1,-1,-1,-1,-1,-1,-1,-1,-1,-1,-1,-1,-1,-1,-1,-1,-1
-1,-1,-1,-1,-1,-1,-1,-1,-1,-1,-1,-1,-1,-1,-1,-1,-1,-1,-1,-1,-1,-1,-1,-1,-1,-1,-1,-1,-1,-1,-1,-1,-1,-1,-1,-1,-1,-1,-1,-1,-1,-1,-1,-1,-1,-1,-1,-1,-1,-1,-1,-1,-1,-1,-1,-1,-1,-1,-1,-1,-1,-1,-1,-1,-1,-1,-1,-1,-1,-1,-1,-1,-1,-1,-1,-1,-1,-1,-1,-1,-1,-1,-1,-1,-1,-1,-1,-1,-1,-1,-1,-1,-1,-1,-1,-1,-1,-1,-1,-1,-1,-1,-1,-1,-1,-1,-1,-1,-1,-1,-1,-1,-1,-1,-1,-1,-1,-1,-1,-1,-1,-1,-1,-1,-1,-1,-1,-1,-1,-1,-1,-1,-1,-1,-1,-1,-1,-1,-1,-1,-1,-1,-1,-1,-1,-1,-1,-1,-1,-1,-1,-1,-1,-1,-1,-1,-1,-1,-1,-1,-1,-1,-1,-1,-1,-1,-1,-1,-1,-1,-1,-1,-1,-1,-1,-1,6,7,6,1,5,7,7,3,2,2,6,3,2,2,1,3,8,12,6,3,0,5,4,5,10,6,5,5,2,2,7,3,5,2,7,3,2,4,7,5,2,2,2,1,4,5,6,5,2,2,5,4,2,5,6,8,7,2,11,8,5,1,11,5,9,1,6,3,1,3,3,3,4,5,4,5,2,3,5,4,6,1,2,4,2,1,2,2,1,2,4,3,3,2,1,2,6,3,1,1,2,0,2,3,5,5,1,2,6,6,2,3,3,3,4,3,3,3,5,1,1,1,2,1,1,0,1,-1,-1,-1,-1,-1,-1,-1,-1,-1,-1,-1,-1,-1,-1,-1,-1,-1,-1,-1,-1,-1,-1,-1,-1,-1,-1,-1,-1,-1,-1,-1,-1,-1,-1,-1,-1,-1,-1,-1,-1,-1,-1,-1,-1,-1,-1,-1,-1,-1,-1,-1,-1,-1,-1,-1,-1,-1,-1,-1,-1,-1,-1,-1,-1,-1,-1,-1,-1,-1,-1,-1,-1,-1,-1,-1,-1,-1,-1,-1,-1,-1,-1,-1,-1,-1,-1,-1,-1,-1,-1,-1,-1,-1,-1,-1,-1,-1,-1,-1,-1,-1,-1,-1,-1,-1,-1,-1,-1,-1,-1,-1,-1,-1,-1,-1,-1,-1,-1,-1,-1,-1,-1,-1,-1,-1,-1,-1,-1,-1,-1,-1,-1,-1,-1,-1,-1,-1,-1,-1,-1
-1,-1,-1,-1,-1,-1,-1,-1,-1,-1,-1,-1,-1,-1,-1,-1,-1,-1,-1,-1,-1,-1,-1,-1,-1,-1,-1,-1,-1,-1,-1,-1,-1,-1,-1,-1,-1,-1,-1,-1,-1,-1,-1,-1,-1,-1,-1,-1,-1,-1,-1,-1,-1,-1,-1,-1,-1,-1,-1,-1,-1,-1,-1,-1,-1,-1,-1,-1,-1,-1,-1,-1,-1,-1,-1,-1,-1,-1,-1,-1,-1,-1,-1,-1,-1,-1,-1,-1,-1,-1,-1,-1,-1,-1,-1,-1,-1,-1,-1,-1,-1,-1,-1,-1,-1,-1,-1,-1,-1,-1,-1,-1,-1,-1,-1,-1,-1,-1,-1,-1,-1,-1,-1,-1,-1,-1,-1,-1,-1,-1,-1,-1,-1,-1,-1,-1,-1,-1,-1,-1,-1,-1,-1,-1,-1,-1,-1,-1,-1,-1,-1,-1,-1,-1,-1,-1,-1,-1,-1,-1,-1,-1,-1,-1,-1,-1,-1,-1,-1,-1,-1,-1,-1,-1,-1,-1,-1,-1,-1,-1,7,17,6,14,3,12,11,21,14,5,4,8,9,31,10,2,2,3,13,16,11,18,9,5,5,1,8,4,1,3,7,4,20,5,9,3,5,6,4,4,2,1,2,15,13,12,19,5,10,19,9,1,13,11,20,12,6,13,28,8,4,3,5,7,11,12,11,11,6,8,28,13,14,9,15,16,6,1,2,2,3,5,3,3,3,5,5,4,2,4,2,6,5,4,5,3,3,1,2,4,2,8,2,6,17,10,13,10,6,2,5,13,6,16,7,2,5,2,3,1,-1,-1,-1,-1,-1,-1,-1,-1,-1,-1,-1,-1,-1,-1,-1,-1,-1,-1,-1,-1,-1,-1,-1,-1,-1,-1,-1,-1,-1,-1,-1,-1,-1,-1,-1,-1,-1,-1,-1,-1,-1,-1,-1,-1,-1,-1,-1,-1,-1,-1,-1,-1,-1,-1,-1,-1,-1,-1,-1,-1,-1,-1,-1,-1,-1,-1,-1,-1,-1,-1,-1,-1,-1,-1,-1,-1,-1,-1,-1,-1,-1,-1,-1,-1,-1,-1,-1,-1,-1,-1,-1,-1,-1,-1,-1,-1,-1,-1,-1,-1,-1,-1,-1,-1,-1,-1,-1,-1,-1,-1,-1,-1,-1,-1,-1,-1,-1,-1,-1,-1,-1,-1,-1,-1,-1,-1,-1,-1,-1,-1,-1,-1,-1,-1,-1,-1,-1,-1,-1,-1,-1,-1,-1
-1,-1,-1,-1,-1,-1,-1,-1,-1,-1,-1,-1,-1,-1,-1,-1,-1,-1,-1,-1,-1,-1,-1,-1,-1,-1,-1,-1,-1,-1,-1,-1,-1,-1,-1,-1,-1,-1,-1,-1,-1,-1,-1,-1,-1,-1,-1,-1,-1,-1,-1,-1,-1,-1,-1,-1,-1,-1,-1,-1,-1,-1,-1,-1,-1,-1,-1,-1,-1,-1,-1,-1,-1,-1,-1,-1,-1,-1,-1,-1,-1,-1,-1,-1,-1,-1,-1,-1,-1,-1,-1,-1,-1,-1,-1,-1,-1,-1,-1,-1,-1,-1,-1,-1,-1,-1,-1,-1,-1,-1,-1,-1,-1,-1,-1,-1,-1,-1,-1,-1,-1,-1,-1,-1,-1,-1,-1,-1,-1,-1,-1,-1,-1,-1,-1,-1,-1,-1,-1,-1,-1,-1,-1,-1,-1,-1,-1,-1,-1,-1,-1,-1,-1,-1,-1,-1,-1,-1,-1,-1,-1,-1,-1,-1,-1,-1,-1,-1,-1,-1,-1,-1,-1,-1,-1,-1,-1,-1,-1,-1,-1,-1,-1,-1,-1,17,22,6,20,8,6,18,12,12,24,7,5,9,10,11,8,22,6,7,4,8,14,2,3,15,21,5,16,6,8,3,9,5,2,2,3,6,8,14,31,19,7,1,8,24,14,12,17,16,24,15,25,9,18,4,6,8,10,11,11,13,12,13,1,4,22,22,11,12,4,20,4,3,7,5,3,2,3,7,9,9,9,9,8,8,6,6,7,8,8,4,2,0,2,6,5,4,7,4,4,30,8,6,4,6,1,21,10,7,14,11,-1,-1,-1,-1,-1,-1,-1,-1,-1,-1,-1,-1,-1,-1,-1,-1,-1,-1,-1,-1,-1,-1,-1,-1,-1,-1,-1,-1,-1,-1,-1,-1,-1,-1,-1,-1,-1,-1,-1,-1,-1,-1,-1,-1,-1,-1,-1,-1,-1,-1,-1,-1,-1,-1,-1,-1,-1,-1,-1,-1,-1,-1,-1,-1,-1,-1,-1,-1,-1,-1,-1,-1,-1,-1,-1,-1,-1,-1,-1,-1,-1,-1,-1,-1,-1,-1,-1,-1,-1,-1,-1,-1,-1,-1,-1,-1,-1,-1,-1,-1,-1,-1,-1,-1,-1,-1,-1,-1,-1,-1,-1,-1,-1,-1,-1,-1,-1,-1,-1,-1,-1,-1,-1,-1,-1,-1,-1,-1,-1,-1,-1,-1,-1,-1,-1,-1,-1,-1,-1,-1,-1,-1,-1,-1,-1,-1,-1
