-1,-1,-1,-1,-1,-1,-1,-1,-1,-1,-1,-1,-1,-1,-1,-1,-1,-1,-1,-1,-1,-1,-1,-1,-1,-1,-1,-1,-1,-1,-1,-1,-1,-1,-1,-1,-1,-1,-1,-1,-1,-1,-1,-1,-1,-1,-1,-1,-1,-1,-1,-1,-1,-1,-1,-1,-1,-1,-1,-1,20,25,25,17,12,17,25,43,59,69,68,52,18,29,32,31,27,21,38,52,42,13,12,18,21,21,16,12,16,20,11,21,29,50,49,52,65,59,44,49,76,82,73,52,56,51,51,46,52,48,47,73,79,79,53,54,52,61,74,75,59,57,55,65,60,49,40,36,43,30,8,8,15,7,8,8,8,12,10,10,16,17,20,18,13,17,20,20,16,21,16,20,30,41,21,0,5,13,8,12,12,5,23,27,26,45,51,55,55,51,48,43,43,39,44,35,43,47,47,59,55,48,48,47,47,43,43,43,43,39,39,39,39,39,40,33,23,29,20,8,8,17,28,20,13,7,12,12,12,13,9,13,5,8,12,12,12,12,12,12,12,13,11,8,12,13,13,12,12,12,18,17,16,25,16,15,16,11,12,12,12,12,12,12,12,13,13,12,12,12,12,12,12,12,12,13,13,8,15,12,13,11,10,9,13,3,8,12,16,12,0,5,13,8,0,0,5,8,13,13,13,12,12,13,13,13,8,5,0,0,0,5,8,12,15,8,0,0,0,0,0,0,0,0,0,5,10,10,3,3,5,0,0,8,13,5,5,3,4,3,3,10,13,13,3,0,0,0,0,0,0,0,0,0,0,5,8,13,13,8,12,12,8,13,8,8,10,5,12,12,12,12,20,13,16,22,19,21,27,49,52,49,25,17,14,15,16,12,0,0,5,10,11,11,13,12,16,13,12,10,5,5,13,7,13,8,18,30,38,48,49,62,67,46,53,51,36,31,35,41,39,24,22,32,31,19,19,22,12,10,13,29,24,32,35,29,19,15,8,10,13,16,13,17,22,32,40,46,44,46,44,50,54,61,72,67,61,58,69,61,42,46,44,65,67,44,21,39,46,45,34,24,23,24,24,24,26,20,15,29,37,26,22,17,24,29,22,17,5,0,0,0,0,0,0,0,0,5,10,10,5,0,5,8,13,10,8,13,8,0,12,12,5,8,11,20,15,5,13,13,12,15,8,-1,-1,-1,-1,-1,-1,-1,-1,-1,-1,-1,-1,-1,-1,-1,-1,-1,-1,-1,-1,-1,-1,-1,-1,-1,-1,-1,-1,-1,-1,-1,-1,-1,-1,-1,-1,-1,-1,-1,-1,-1,-1,-1,-1,-1,-1,-1,-1,-1,-1,-1
-1,-1,-1,-1,-1,-1,-1,-1,-1,-1,-1,-1,-1,-1,-1,-1,-1,-1,-1,-1,-1,-1,-1,-1,-1,-1,-1,-1,-1,-1,-1,-1,-1,-1,-1,-1,-1,-1,-1,-1,-1,-1,-1,-1,-1,-1,-1,-1,-1,-1,-1,-1,-1,-1,-1,-1,-1,-1,-1,-1,-1,-1,-1,-1,-1,-1,-1,-1,23,48,67,69,54,34,34,28,28,39,50,52,34,12,16,25,24,19,18,17,15,22,22,16,8,25,42,43,62,71,61,47,71,79,74,57,55,60,52,47,54,51,41,66,88,85,58,54,49,60,74,81,66,62,65,66,66,65,58,36,45,30,17,12,15,12,15,13,10,5,8,17,17,13,17,20,15,8,13,9,10,5,12,16,20,23,21,5,8,13,5,8,15,10,24,35,22,40,48,52,60,50,43,43,43,43,43,35,44,47,47,59,60,43,48,47,39,44,47,43,44,39,40,39,39,39,36,32,23,17,14,15,10,16,24,25,19,19,18,13,12,12,12,8,5,0,0,0,0,0,5,8,8,5,10,13,12,8,8,12,12,16,17,18,12,11,12,12,13,12,13,12,12,12,12,12,12,12,12,8,5,0,0,0,5,3,5,5,3,8,8,12,8,8,13,13,8,8,18,14,20,11,12,12,15,8,8,12,13,13,8,5,7,12,8,7,12,8,3,5,0,0,5,10,13,12,8,5,0,0,0,0,0,0,0,0,5,10,10,5,0,0,0,0,0,5,13,8,0,0,3,9,7,13,13,10,5,0,0,0,0,0,5,8,12,8,5,0,0,5,8,15,12,15,8,11,14,20,18,13,12,10,5,0,8,13,17,21,24,19,31,38,46,47,29,19,11,14,22,20,12,8,5,5,13,8,8,12,16,7,8,10,13,10,18,10,8,13,12,20,31,38,50,78,80,55,58,63,57,48,41,34,29,27,21,21,33,24,26,23,17,11,17,41,43,35,27,22,24,17,8,13,11,12,13,26,35,46,47,60,61,58,58,52,56,58,53,52,54,64,71,64,52,55,49,60,62,36,37,50,40,30,18,18,24,19,37,29,24,19,24,32,23,3,5,8,13,18,3,13,8,0,0,0,0,0,0,0,0,5,8,11,13,12,12,8,5,10,12,10,4,3,12,12,0,0,12,13,13,10,8,12,13,4,10,8,-1,-1,-1,-1,-1,-1,-1,-1,-1,-1,-1,-1,-1,-1,-1,-1,-1,-1,-1,-1,-1,-1,-1,-1,-1,-1,-1,-1,-1,-1,-1,-1,-1,-1,-1,-1,-1,-1,-1,-1,-1,-1,-1,-1,-1,-1,-1,-1,-1,-1
-1,-1,-1,-1,-1,-1,-1,-1,-1,-1,-1,-1,-1,-1,-1,-1,-1,-1,-1,-1,-1,-1,-1,-1,-1,-1,-1,-1,-1,-1,-1,-1,-1,-1,-1,-1,-1,-1,-1,-1,-1,-1,-1,-1,-1,-1,-1,-1,-1,-1,-1,-1,-1,-1,-1,-1,-1,-1,-1,-1,-1,-1,-1,-1,-1,-1,-1,-1,14,35,61,66,69,58,23,12,13,42,52,43,34,18,19,22,19,22,17,18,12,10,17,9,13,4,29,33,52,60,47,53,72,81,75,52,54,57,62,49,57,51,38,46,79,84,74,62,49,49,65,64,64,62,52,62,61,67,69,65,49,50,35,20,16,10,10,8,10,13,12,17,33,32,27,24,12,5,12,13,10,5,12,15,15,16,19,15,12,13,8,12,20,25,39,41,20,40,47,47,55,51,43,43,43,43,43,40,39,48,57,65,51,43,47,48,35,44,47,43,43,43,35,44,39,40,40,37,33,16,12,12,10,9,17,13,17,18,17,17,16,17,12,8,5,0,0,0,0,5,10,13,13,10,5,8,12,13,13,8,10,15,8,11,13,12,13,13,8,8,5,0,5,8,12,12,13,13,13,10,8,12,12,12,8,9,5,3,5,0,0,0,5,5,13,7,15,17,22,22,17,18,12,12,8,11,13,12,8,8,8,10,13,13,13,13,12,12,12,10,5,5,10,10,5,0,0,0,5,8,12,12,12,8,8,8,13,10,5,0,0,0,0,0,0,0,8,15,8,5,5,3,3,8,8,4,8,8,5,5,8,12,13,13,12,15,8,0,0,0,0,12,12,8,13,11,16,17,17,15,8,10,13,12,10,5,8,5,18,14,22,26,37,32,37,32,25,26,32,34,19,14,10,5,8,15,12,13,12,13,12,8,8,20,11,13,11,13,12,17,21,32,41,76,64,55,60,71,73,67,48,31,32,33,21,17,21,25,25,23,17,20,30,41,45,34,24,25,28,30,21,14,10,8,7,26,38,45,46,58,61,60,59,56,56,56,56,53,48,60,65,65,52,48,36,43,50,36,34,40,27,20,16,19,30,40,35,31,27,28,28,20,8,0,5,13,16,12,0,12,12,0,0,0,0,0,0,0,0,8,13,10,11,16,12,15,8,5,3,5,3,14,17,8,0,0,8,13,10,5,0,5,10,13,13,5,-1,-1,-1,-1,-1,-1,-1,-1,-1,-1,-1,-1,-1,-1,-1,-1,-1,-1,-1,-1,-1,-1,-1,-1,-1,-1,-1,-1,-1,-1,-1,-1,-1,-1,-1,-1,-1,-1,-1,-1,-1,-1,-1,-1,-1,-1,-1,-1,-1,-1
-1,-1,-1,-1,-1,-1,-1,-1,-1,-1,-1,-1,-1,-1,-1,-1,-1,-1,-1,-1,-1,-1,-1,-1,-1,-1,-1,-1,-1,-1,-1,-1,-1,-1,-1,-1,-1,-1,-1,-1,-1,-1,-1,-1,-1,-1,-1,-1,-1,-1,-1,-1,-1,-1,-1,-1,-1,-1,-1,-1,-1,-1,-1,-1,-1,-1,-1,-1,3,16,46,57,78,99,89,79,67,67,55,34,13,19,19,18,21,22,16,12,12,13,4,13,8,20,26,27,23,33,36,33,50,65,79,77,56,59,60,52,52,56,44,44,71,73,71,66,62,52,49,52,57,58,62,52,57,59,76,67,59,53,46,29,16,8,8,13,13,4,13,20,24,33,21,21,21,17,14,18,20,8,8,17,22,18,18,17,16,13,18,12,13,29,46,40,27,41,39,56,55,47,43,43,43,43,47,43,44,54,59,59,50,49,52,39,36,39,43,43,44,39,35,44,39,35,36,37,28,25,17,8,5,9,12,21,9,17,20,20,25,16,16,13,13,12,12,12,12,13,10,5,5,13,8,0,0,5,8,13,13,8,8,13,8,5,3,12,13,13,12,8,10,15,12,12,8,4,10,8,10,12,12,12,8,8,9,13,8,0,0,5,10,12,18,14,14,20,14,18,8,5,0,0,8,13,5,5,10,12,12,10,5,5,8,8,8,12,12,11,13,13,11,8,5,0,5,8,13,13,12,12,12,13,12,13,8,5,0,5,3,5,0,0,0,0,5,8,13,10,5,0,0,0,0,8,15,15,7,10,13,12,8,5,0,8,13,5,0,0,0,12,12,8,8,10,11,8,8,5,0,3,11,16,21,18,10,5,8,13,22,25,24,29,33,40,24,31,31,22,28,19,11,10,5,8,12,8,8,8,12,15,8,12,12,5,10,14,18,16,14,18,21,46,54,54,51,73,83,79,70,35,27,20,13,25,20,17,26,28,28,28,34,33,31,31,30,34,36,42,37,21,16,17,31,45,45,41,41,50,46,49,55,56,56,56,50,36,38,46,43,43,37,32,35,39,45,41,25,24,23,23,25,26,26,32,26,28,28,24,20,13,10,8,8,15,16,12,5,13,8,0,0,0,0,0,0,0,5,13,8,13,13,15,8,8,13,5,5,8,12,17,15,5,0,0,5,3,5,0,5,10,10,5,13,14,-1,-1,-1,-1,-1,-1,-1,-1,-1,-1,-1,-1,-1,-1,-1,-1,-1,-1,-1,-1,-1,-1,-1,-1,-1,-1,-1,-1,-1,-1,-1,-1,-1,-1,-1,-1,-1,-1,-1,-1,-1,-1,-1,-1,-1,-1,-1,-1,-1,-1
-1,-1,-1,-1,-1,-1,-1,-1,-1,-1,-1,-1,-1,-1,-1,-1,-1,-1,-1,-1,-1,-1,-1,-1,-1,-1,-1,-1,-1,-1,-1,-1,-1,-1,-1,-1,-1,-1,-1,-1,-1,-1,-1,-1,-1,-1,-1,-1,-1,-1,-1,-1,-1,-1,-1,-1,-1,-1,-1,-1,-1,-1,-1,-1,-1,-1,-1,-1,0,12,28,38,60,73,91,100,83,82,52,23,15,21,22,22,21,18,16,15,15,15,16,25,30,34,32,24,17,20,29,28,45,57,76,77,60,54,53,59,55,58,52,57,68,80,68,66,74,61,62,52,52,63,66,63,55,47,59,60,58,60,51,34,31,27,19,15,8,13,13,17,10,13,20,12,24,27,13,23,23,20,15,18,22,14,14,22,22,22,20,13,8,7,28,44,44,31,35,52,59,51,44,43,43,48,52,43,48,57,63,54,45,40,48,49,32,40,47,47,43,40,35,43,40,31,31,31,27,20,17,8,5,8,20,11,12,13,25,10,4,9,13,8,8,12,12,12,12,8,13,20,17,12,12,5,8,12,8,5,3,5,12,16,9,3,8,13,8,8,13,13,5,15,12,12,12,13,10,13,8,5,8,12,13,8,10,8,13,5,5,10,10,8,13,15,12,16,13,8,8,5,0,5,13,8,5,10,10,8,8,8,12,12,12,8,5,13,13,11,8,8,11,12,13,8,10,15,8,5,0,0,0,5,3,5,0,0,5,10,13,8,0,0,0,0,0,0,8,12,8,8,8,5,0,8,15,15,12,13,5,0,0,0,0,5,13,8,5,3,5,12,16,13,13,13,13,3,0,0,5,10,13,13,22,35,23,13,8,13,20,17,19,29,39,30,19,12,18,20,17,16,12,12,3,5,8,12,8,5,0,12,12,12,13,8,8,16,16,16,13,8,18,35,53,48,51,65,72,97,75,35,24,15,16,16,17,17,33,40,35,36,37,28,34,37,28,26,35,42,41,32,40,54,55,43,44,43,41,42,33,39,45,54,54,48,35,27,43,47,40,27,22,19,34,43,55,43,27,22,21,16,20,23,28,20,16,15,12,12,13,11,11,12,13,8,13,8,10,11,8,12,12,12,12,8,5,5,10,11,12,8,5,8,13,5,10,13,13,13,12,8,5,0,0,5,8,12,12,12,13,10,5,5,8,8,-1,-1,-1,-1,-1,-1,-1,-1,-1,-1,-1,-1,-1,-1,-1,-1,-1,-1,-1,-1,-1,-1,-1,-1,-1,-1,-1,-1,-1,-1,-1,-1,-1,-1,-1,-1,-1,-1,-1,-1,-1,-1,-1,-1,-1,-1,-1,-1,-1,-1
-1,-1,-1,-1,-1,-1,-1,-1,-1,-1,-1,-1,-1,-1,-1,-1,-1,-1,-1,-1,-1,-1,-1,-1,-1,-1,-1,-1,-1,-1,-1,-1,-1,-1,-1,-1,-1,-1,-1,-1,-1,-1,-1,-1,-1,-1,-1,-1,-1,-1,-1,-1,-1,-1,-1,-1,-1,-1,-1,-1,-1,-1,-1,-1,-1,-1,-1,-1,5,18,25,32,27,37,54,59,71,45,34,12,17,22,20,19,19,22,16,12,12,19,27,36,45,43,28,29,17,15,20,17,32,51,55,78,84,65,52,52,54,52,56,54,87,77,62,67,71,66,69,61,60,60,66,63,57,57,50,58,65,56,48,36,33,27,24,21,18,13,17,13,13,14,10,12,29,37,25,17,16,17,14,8,12,20,19,24,19,21,19,20,17,16,34,56,47,31,31,52,59,47,44,47,47,47,53,44,52,59,64,52,39,44,39,44,32,40,47,43,44,39,40,43,35,31,32,36,32,15,15,12,0,0,8,13,5,8,13,12,13,12,10,5,0,0,0,0,0,13,22,33,34,24,12,3,13,13,15,8,0,0,8,15,16,7,8,13,8,0,8,13,9,5,13,12,13,4,18,13,3,8,14,9,9,9,5,8,10,13,13,11,8,18,14,12,20,17,5,13,13,3,5,10,10,5,10,10,5,5,10,13,12,16,12,13,13,8,8,13,3,8,13,12,12,13,13,8,0,0,0,0,0,0,0,0,0,0,8,13,13,12,0,0,0,0,5,8,13,11,11,13,13,10,5,5,8,8,12,12,0,0,5,8,12,8,8,13,5,9,3,8,13,11,13,4,10,5,0,0,3,13,10,4,20,21,24,16,13,14,22,18,13,16,16,26,29,18,15,31,34,25,20,13,4,10,13,12,13,13,8,12,12,8,13,13,13,13,19,24,21,25,11,21,45,47,47,59,67,96,93,45,24,20,20,12,13,20,32,44,44,40,46,36,40,36,31,16,24,42,54,48,48,57,57,48,49,41,45,35,35,35,36,40,38,29,19,29,38,39,30,22,23,20,28,36,47,52,27,17,12,15,16,28,28,20,16,8,0,0,5,10,13,16,12,18,14,13,11,11,13,12,12,12,12,13,13,13,10,8,9,3,0,5,10,10,5,8,8,8,12,8,5,0,0,8,15,12,12,12,8,5,0,0,0,0,0,-1,-1,-1,-1,-1,-1,-1,-1,-1,-1,-1,-1,-1,-1,-1,-1,-1,-1,-1,-1,-1,-1,-1,-1,-1,-1,-1,-1,-1,-1,-1,-1,-1,-1,-1,-1,-1,-1,-1,-1,-1,-1,-1,-1,-1,-1,-1,-1,-1
-1,-1,-1,-1,-1,-1,-1,-1,-1,-1,-1,-1,-1,-1,-1,-1,-1,-1,-1,-1,-1,-1,-1,-1,-1,-1,-1,-1,-1,-1,-1,-1,-1,-1,-1,-1,-1,-1,-1,-1,-1,-1,-1,-1,-1,-1,-1,-1,-1,-1,-1,-1,-1,-1,-1,-1,-1,-1,-1,-1,-1,-1,-1,-1,-1,-1,-1,-1,10,14,22,22,15,8,14,18,24,16,15,16,20,20,14,14,23,23,20,29,40,34,39,48,49,48,35,23,20,20,23,15,21,34,35,71,77,76,63,46,43,44,52,49,76,85,71,49,60,61,69,68,60,51,62,58,49,50,53,56,73,83,59,39,40,32,30,27,22,16,7,3,18,8,13,21,24,33,27,21,17,8,12,12,16,25,22,27,27,13,23,25,26,17,36,47,48,31,35,52,55,48,44,47,47,55,56,44,48,51,55,52,43,43,35,44,36,40,47,43,43,43,39,44,36,28,33,40,37,20,15,12,0,0,5,10,13,8,5,12,13,3,5,0,0,0,0,0,0,16,32,32,42,27,12,5,10,13,15,8,3,5,5,8,12,13,11,8,5,0,12,12,3,9,3,0,8,15,10,14,3,8,13,13,12,8,8,5,3,11,16,13,13,14,18,12,14,15,8,7,12,7,10,13,8,18,13,8,8,13,10,5,8,13,8,5,8,8,8,10,4,8,12,17,14,8,8,8,5,0,0,0,0,5,3,5,0,5,13,8,8,15,8,5,5,8,13,13,8,8,12,9,5,10,10,5,0,5,13,8,0,0,13,19,19,19,13,13,8,3,5,10,13,5,12,18,8,5,5,3,5,12,15,8,8,5,13,10,5,18,22,14,14,23,23,29,36,31,17,36,35,35,37,25,13,11,8,12,12,16,17,19,18,5,3,5,7,12,18,19,31,19,18,25,44,51,47,68,80,93,76,31,19,24,29,26,35,34,29,33,32,40,49,46,41,40,27,34,34,40,48,47,45,46,50,52,50,44,43,38,30,30,32,25,23,25,26,32,35,28,22,30,26,30,35,33,46,37,13,13,16,7,12,28,27,24,22,8,12,12,12,12,16,15,15,17,18,12,5,13,10,5,0,0,0,5,8,8,5,5,3,5,0,0,5,10,13,12,13,13,12,13,10,5,0,8,13,5,0,0,0,0,0,0,0,0,0,-1,-1,-1,-1,-1,-1,-1,-1,-1,-1,-1,-1,-1,-1,-1,-1,-1,-1,-1,-1,-1,-1,-1,-1,-1,-1,-1,-1,-1,-1,-1,-1,-1,-1,-1,-1,-1,-1,-1,-1,-1,-1,-1,-1,-1,-1,-1,-1,-1
-1,-1,-1,-1,-1,-1,-1,-1,-1,-1,-1,-1,-1,-1,-1,-1,-1,-1,-1,-1,-1,-1,-1,-1,-1,-1,-1,-1,-1,-1,-1,-1,-1,-1,-1,-1,-1,-1,-1,-1,-1,-1,-1,-1,-1,-1,-1,-1,-1,-1,-1,-1,-1,-1,-1,-1,-1,-1,-1,-1,-1,-1,-1,-1,-1,-1,-1,-1,13,12,24,29,18,13,21,22,22,21,12,23,32,25,19,20,22,24,26,39,58,47,47,47,45,45,32,41,40,36,23,20,22,16,17,40,62,76,71,71,52,52,44,46,68,70,73,58,55,55,65,65,66,60,47,59,57,49,53,54,78,82,68,52,52,40,38,40,30,19,13,0,8,17,21,23,21,31,25,20,15,8,20,24,23,25,24,32,32,17,20,15,25,23,41,51,43,37,40,47,51,47,44,43,51,59,55,47,49,49,56,51,48,39,36,49,37,41,43,44,39,44,43,43,27,28,31,35,31,24,16,15,12,12,8,8,12,13,10,12,12,0,0,0,0,0,0,0,0,17,22,24,27,20,12,0,5,8,8,8,13,10,5,0,0,5,10,10,5,0,12,12,5,3,5,0,8,13,8,7,3,5,8,8,8,10,13,10,10,13,12,8,8,13,8,13,10,5,8,13,13,13,13,12,13,13,18,12,13,8,5,5,13,8,13,8,8,8,11,13,13,8,17,16,5,15,13,13,8,0,0,0,0,3,9,3,0,8,13,5,5,8,15,7,15,17,8,5,8,7,14,17,12,13,13,3,0,8,13,8,12,12,18,25,26,30,20,8,13,5,13,18,11,8,13,20,21,3,3,9,8,18,17,8,3,9,5,13,7,18,17,7,18,16,23,32,28,25,16,18,22,40,38,26,12,11,13,12,12,16,20,22,14,10,5,8,15,13,11,13,20,24,20,20,53,55,56,87,86,77,65,40,24,19,35,44,46,37,33,32,41,39,48,42,40,33,27,32,42,31,35,35,32,31,36,37,37,36,25,27,25,26,17,16,28,32,31,33,35,27,30,37,32,31,31,32,36,36,16,13,12,13,20,34,33,26,17,13,13,16,15,15,15,16,12,8,8,13,10,9,13,3,0,0,0,0,5,3,5,0,0,0,0,0,0,5,8,12,8,5,0,5,10,13,12,13,13,3,0,0,0,0,5,8,8,5,0,-1,-1,-1,-1,-1,-1,-1,-1,-1,-1,-1,-1,-1,-1,-1,-1,-1,-1,-1,-1,-1,-1,-1,-1,-1,-1,-1,-1,-1,-1,-1,-1,-1,-1,-1,-1,-1,-1,-1,-1,-1,-1,-1,-1,-1,-1,-1,-1,-1
-1,-1,-1,-1,-1,-1,-1,-1,-1,-1,-1,-1,-1,-1,-1,-1,-1,-1,-1,-1,-1,-1,-1,-1,-1,-1,-1,-1,-1,-1,-1,-1,-1,-1,-1,-1,-1,-1,-1,-1,-1,-1,-1,-1,-1,-1,-1,-1,-1,-1,-1,-1,-1,-1,-1,-1,-1,-1,-1,-1,-1,-1,-1,-1,-1,-1,-1,-1,8,18,29,24,13,11,22,22,22,20,37,46,38,33,24,39,41,46,42,45,53,54,52,47,44,40,44,47,47,43,44,40,37,19,16,18,34,55,65,63,61,50,46,52,52,53,63,60,55,57,58,65,71,83,71,69,65,57,54,53,70,79,73,58,50,42,43,43,31,30,26,5,5,15,21,21,18,23,20,8,8,5,20,29,21,14,18,32,31,13,16,27,34,33,38,57,54,34,37,43,47,47,43,48,56,55,51,60,54,46,49,49,45,51,45,50,41,36,40,44,43,43,47,43,27,28,31,31,31,28,17,8,12,12,13,8,9,12,12,16,13,8,8,5,0,0,5,8,8,8,15,17,15,12,13,8,8,8,3,13,13,12,3,0,0,0,8,12,3,5,13,8,3,5,5,3,4,10,12,12,10,5,8,15,13,13,8,17,14,12,12,12,15,12,14,5,8,10,13,8,5,5,3,3,13,20,15,20,16,17,17,21,12,8,10,12,13,13,13,16,16,16,30,26,20,20,16,13,18,5,0,5,13,16,20,12,8,12,12,0,0,0,8,17,21,19,13,13,12,13,18,5,8,8,8,9,12,16,21,17,19,16,3,19,31,25,20,4,13,8,16,25,13,12,17,20,8,5,8,8,13,16,15,5,5,3,5,12,16,19,19,12,15,8,8,17,24,19,13,14,20,26,36,39,25,17,12,12,13,13,12,17,18,13,10,13,8,5,10,14,20,23,24,25,50,65,71,90,87,65,43,32,27,30,51,48,40,37,37,40,40,49,39,32,33,24,22,27,32,30,28,27,32,44,34,28,26,31,26,27,31,19,16,23,40,44,36,31,30,26,37,32,30,37,27,32,31,28,12,8,12,8,21,33,31,26,3,17,12,13,16,16,12,13,13,12,15,10,10,12,10,5,0,0,0,5,10,13,8,0,0,0,0,5,8,12,12,12,12,12,8,5,5,8,12,12,8,5,0,0,0,0,3,13,13,10,5,-1,-1,-1,-1,-1,-1,-1,-1,-1,-1,-1,-1,-1,-1,-1,-1,-1,-1,-1,-1,-1,-1,-1,-1,-1,-1,-1,-1,-1,-1,-1,-1,-1,-1,-1,-1,-1,-1,-1,-1,-1,-1,-1,-1,-1,-1,-1,-1,-1
-1,-1,-1,-1,-1,-1,-1,-1,-1,-1,-1,-1,-1,-1,-1,-1,-1,-1,-1,-1,-1,-1,-1,-1,-1,-1,-1,-1,-1,-1,-1,-1,-1,-1,-1,-1,-1,-1,-1,-1,-1,-1,-1,-1,-1,-1,-1,-1,-1,-1,-1,-1,-1,-1,-1,-1,-1,-1,-1,-1,-1,-1,-1,-1,-1,-1,-1,-1,16,16,17,19,17,17,30,32,32,34,50,59,59,59,61,79,65,57,48,48,50,49,52,51,55,59,59,55,51,51,56,47,40,32,24,20,18,34,43,51,57,55,49,58,65,51,49,55,57,55,63,66,66,75,71,70,69,66,64,55,62,74,70,58,68,60,44,41,35,38,47,38,25,13,15,21,22,12,13,13,13,8,17,17,19,29,25,36,32,20,23,34,37,36,40,60,55,29,37,39,43,47,47,48,53,60,57,57,57,45,49,49,50,52,55,42,38,27,33,36,39,40,39,44,36,28,33,32,27,28,16,0,0,0,8,8,5,8,13,7,10,10,13,13,8,5,3,13,13,5,8,8,5,5,17,12,10,8,12,8,8,10,5,5,0,5,10,10,4,10,10,5,9,3,8,13,10,4,3,8,10,10,8,13,4,3,8,10,20,16,12,12,12,15,5,14,18,13,3,5,8,12,12,17,28,34,24,16,25,16,20,25,20,15,8,12,12,8,8,12,12,17,27,34,29,20,16,20,14,13,8,5,17,22,12,16,15,12,13,5,0,0,5,15,17,20,17,10,3,8,13,8,5,0,5,18,26,24,17,18,22,21,13,21,17,8,10,20,26,8,13,18,11,5,15,21,7,3,10,10,8,3,5,0,0,0,0,12,19,29,21,9,10,5,5,18,19,19,13,15,20,29,43,50,28,20,15,15,11,10,13,18,17,12,17,14,7,5,5,18,29,27,28,39,53,77,85,83,68,54,31,30,34,44,52,51,35,45,40,40,37,37,31,27,23,28,29,32,32,23,11,17,31,36,39,28,34,34,28,30,16,10,7,24,42,46,37,30,24,35,33,27,32,29,26,30,25,16,12,18,16,18,31,39,25,17,3,21,22,11,13,13,10,5,8,12,8,5,5,3,5,0,0,0,0,3,13,14,8,5,3,5,0,8,15,12,12,12,12,12,15,8,0,5,3,5,5,8,8,5,0,0,5,10,13,8,8,8,-1,-1,-1,-1,-1,-1,-1,-1,-1,-1,-1,-1,-1,-1,-1,-1,-1,-1,-1,-1,-1,-1,-1,-1,-1,-1,-1,-1,-1,-1,-1,-1,-1,-1,-1,-1,-1,-1,-1,-1,-1,-1,-1,-1,-1,-1,-1,-1
-1,-1,-1,-1,-1,-1,-1,-1,-1,-1,-1,-1,-1,-1,-1,-1,-1,-1,-1,-1,-1,-1,-1,-1,-1,-1,-1,-1,-1,-1,-1,-1,-1,-1,-1,-1,-1,-1,-1,-1,-1,-1,-1,-1,-1,-1,-1,-1,-1,-1,-1,-1,-1,-1,-1,-1,-1,-1,-1,-1,-1,-1,-1,-1,-1,-1,-1,11,14,18,23,32,25,24,28,36,40,50,54,64,69,72,68,78,73,51,50,48,48,50,52,55,59,63,59,56,47,51,56,48,42,38,29,20,11,12,24,37,49,55,55,57,63,62,52,52,53,56,65,66,61,59,59,65,64,67,71,60,57,61,57,58,66,63,55,54,49,42,43,42,33,31,26,17,10,10,10,8,12,23,16,20,16,23,31,33,22,20,18,24,30,38,45,47,46,28,37,45,40,49,60,57,49,57,60,51,51,47,53,49,49,49,46,34,30,21,33,40,40,35,35,40,40,35,33,29,23,28,17,0,0,0,8,13,5,13,8,8,8,8,10,8,15,8,5,8,8,5,5,8,8,8,17,12,9,8,8,5,10,13,12,10,5,8,13,4,10,10,5,5,3,5,12,13,10,13,8,5,5,10,11,11,13,8,3,13,12,9,5,10,13,8,8,18,21,17,17,21,16,20,24,33,29,27,23,12,11,16,17,18,20,14,17,17,16,13,13,12,18,21,22,22,22,22,17,19,20,16,16,21,22,8,13,13,12,13,11,13,12,12,8,4,8,20,13,8,5,12,16,13,13,12,13,17,18,18,12,13,16,19,18,8,10,10,8,21,24,20,21,9,13,10,16,25,17,13,10,5,0,0,0,0,0,0,5,13,20,17,14,13,10,5,5,13,7,18,28,24,28,32,48,46,39,24,20,15,17,18,14,19,22,20,21,22,16,21,13,12,28,31,32,42,52,78,88,90,58,50,39,54,65,60,49,40,36,42,49,43,44,36,31,40,31,27,23,38,35,24,25,24,22,22,22,31,39,33,29,20,17,5,26,50,47,43,35,43,35,51,53,49,51,29,37,29,18,18,13,22,25,18,27,28,12,13,16,22,19,10,5,5,13,8,0,5,3,8,8,12,8,5,5,8,8,5,8,8,5,8,13,8,5,13,8,0,0,0,0,5,13,8,0,8,13,13,13,13,13,10,5,0,0,5,8,10,10,15,-1,-1,-1,-1,-1,-1,-1,-1,-1,-1,-1,-1,-1,-1,-1,-1,-1,-1,-1,-1,-1,-1,-1,-1,-1,-1,-1,-1,-1,-1,-1,-1,-1,-1,-1,-1,-1,-1,-1,-1,-1,-1,-1,-1,-1,-1,-1,-1
-1,-1,-1,-1,-1,-1,-1,-1,-1,-1,-1,-1,-1,-1,-1,-1,-1,-1,-1,-1,-1,-1,-1,-1,-1,-1,-1,-1,-1,-1,-1,-1,-1,-1,-1,-1,-1,-1,-1,-1,-1,-1,-1,-1,-1,-1,-1,-1,-1,-1,-1,-1,-1,-1,-1,-1,-1,-1,-1,-1,-1,-1,-1,-1,-1,-1,-1,13,18,19,29,35,27,22,35,41,45,52,58,62,78,69,53,46,36,36,46,43,50,52,57,59,59,60,48,48,43,43,49,46,50,41,31,30,17,18,17,23,37,49,55,55,60,60,60,57,49,54,60,68,71,67,48,39,47,52,62,61,63,68,70,63,58,60,52,52,51,53,46,43,40,38,41,41,29,26,18,21,20,24,26,34,28,28,28,24,16,29,26,25,29,43,45,38,29,44,38,46,46,46,57,60,53,53,47,47,47,55,60,52,53,48,49,33,21,25,28,36,35,31,31,35,40,43,45,24,28,28,12,0,0,0,8,13,8,12,8,8,13,8,10,13,15,8,0,5,8,12,13,13,18,11,14,17,8,13,5,5,7,12,10,12,3,8,15,13,10,5,0,0,0,0,8,13,4,8,13,13,8,4,13,12,8,13,12,13,3,5,10,11,8,5,8,17,18,8,17,25,19,29,32,37,33,32,29,16,15,15,11,3,8,15,17,18,16,25,24,24,25,24,21,18,18,17,20,27,30,20,20,24,28,20,11,10,13,11,11,8,12,12,13,13,12,15,5,9,3,12,15,13,8,13,5,11,12,12,15,13,3,7,13,5,5,13,12,18,20,14,23,18,9,12,17,18,17,15,5,0,0,0,0,0,0,5,10,10,12,11,12,8,13,8,8,13,8,9,17,25,20,21,36,40,36,29,20,15,22,22,22,22,22,22,17,18,20,23,18,16,28,35,40,43,56,72,89,74,34,39,52,55,68,59,47,48,57,55,49,43,43,43,39,39,36,33,37,41,36,27,36,33,24,27,28,36,31,20,12,18,16,29,50,62,54,44,46,51,49,60,56,59,55,44,32,18,8,17,27,29,26,20,17,20,12,18,25,25,17,13,12,8,13,12,5,10,12,12,13,12,13,13,13,13,15,8,0,0,5,13,8,15,13,10,5,0,5,8,8,7,13,5,0,8,14,4,10,5,8,12,3,0,0,0,0,12,12,8,-1,-1,-1,-1,-1,-1,-1,-1,-1,-1,-1,-1,-1,-1,-1,-1,-1,-1,-1,-1,-1,-1,-1,-1,-1,-1,-1,-1,-1,-1,-1,-1,-1,-1,-1,-1,-1,-1,-1,-1,-1,-1,-1,-1,-1,-1,-1,-1
-1,-1,-1,-1,-1,-1,-1,-1,-1,-1,-1,-1,-1,-1,-1,-1,-1,-1,-1,-1,-1,-1,-1,-1,-1,-1,-1,-1,-1,-1,-1,-1,-1,-1,-1,-1,-1,-1,-1,-1,-1,-1,-1,-1,-1,-1,-1,-1,-1,-1,-1,-1,-1,-1,-1,-1,-1,-1,-1,-1,-1,-1,-1,-1,-1,-1,-1,16,17,24,27,31,25,35,48,46,45,43,54,57,56,29,24,20,25,31,40,50,56,59,68,68,54,56,49,48,43,40,37,35,42,50,46,43,33,24,7,3,23,34,48,55,55,55,65,63,53,41,44,72,80,76,59,43,48,50,49,60,68,63,64,62,66,71,70,57,50,49,47,48,48,42,43,38,31,31,28,24,20,20,27,24,28,24,20,15,15,31,34,26,32,38,40,35,36,35,43,46,46,46,53,60,57,49,45,49,52,60,55,55,56,43,43,31,29,22,34,37,37,32,31,31,35,44,41,29,27,28,12,5,8,8,5,10,11,13,8,12,12,0,5,10,5,8,5,10,13,12,8,5,16,22,16,15,8,10,13,8,7,13,11,13,4,5,8,8,5,0,0,0,0,0,8,12,3,0,5,8,13,13,20,19,17,11,13,12,0,8,13,11,12,13,20,17,8,15,21,22,24,26,34,28,34,41,27,19,15,15,17,21,24,32,32,30,28,35,32,36,28,29,17,3,5,7,20,30,26,24,20,20,19,20,13,11,11,11,11,13,12,12,12,16,15,16,11,16,12,15,11,13,5,8,13,16,12,10,22,18,5,5,10,13,12,15,7,13,21,17,25,13,13,14,8,8,8,5,0,0,0,0,0,5,3,10,13,8,15,12,13,5,13,8,12,16,9,3,0,0,0,0,13,24,25,22,22,12,18,17,22,24,19,17,16,18,16,17,20,17,24,40,48,43,59,78,89,67,47,43,48,44,45,44,43,47,57,53,40,40,44,43,44,32,33,36,46,43,33,33,44,48,50,46,42,38,31,29,28,29,24,37,48,57,60,60,70,64,57,55,56,50,43,44,33,29,30,32,32,23,17,18,20,17,12,16,24,21,8,12,12,13,13,8,10,10,8,3,5,0,5,8,8,5,8,15,8,5,3,13,13,4,10,5,0,5,10,13,15,16,12,0,0,5,8,13,13,12,13,10,5,0,0,0,0,12,12,5,-1,-1,-1,-1,-1,-1,-1,-1,-1,-1,-1,-1,-1,-1,-1,-1,-1,-1,-1,-1,-1,-1,-1,-1,-1,-1,-1,-1,-1,-1,-1,-1,-1,-1,-1,-1,-1,-1,-1,-1,-1,-1,-1,-1,-1,-1,-1,-1
-1,-1,-1,-1,-1,-1,-1,-1,-1,-1,-1,-1,-1,-1,-1,-1,-1,-1,-1,-1,-1,-1,-1,-1,-1,-1,-1,-1,-1,-1,-1,-1,-1,-1,-1,-1,-1,-1,-1,-1,-1,-1,-1,-1,-1,-1,-1,-1,-1,-1,-1,-1,-1,-1,-1,-1,-1,-1,-1,-1,-1,-1,-1,-1,-1,-1,-1,15,24,29,27,43,48,47,42,43,36,30,38,40,29,10,13,16,32,35,44,58,69,73,69,64,51,52,49,49,44,40,38,35,38,47,47,50,41,40,26,17,15,12,34,45,54,54,60,71,69,42,47,59,69,76,76,63,55,60,60,52,63,59,50,56,61,72,74,68,53,52,57,52,47,45,38,31,23,28,24,20,16,15,12,3,17,15,15,15,20,34,30,24,25,33,35,35,31,44,38,42,45,45,49,57,60,53,46,46,49,52,51,60,51,44,39,31,31,29,31,35,34,29,28,31,35,40,40,36,27,24,18,5,13,13,3,5,13,16,12,12,12,0,0,8,13,8,3,12,8,5,3,5,13,17,15,5,5,7,16,17,21,25,18,8,8,13,8,0,0,0,0,5,3,5,8,13,5,0,0,5,7,16,27,24,17,13,13,8,8,20,19,19,20,28,29,17,13,19,24,21,23,19,24,22,19,21,21,16,15,16,18,20,30,37,28,24,36,41,38,36,33,24,17,17,20,20,12,18,17,24,24,20,15,17,18,14,16,11,13,16,15,16,12,12,12,12,12,12,12,8,8,12,3,8,9,12,21,14,21,14,10,5,5,8,12,8,5,0,5,13,16,13,12,20,15,8,0,0,0,0,0,0,0,3,9,10,12,13,10,12,12,8,13,5,12,12,3,5,5,8,12,12,8,16,19,26,29,26,12,12,20,25,22,12,16,17,21,25,22,21,33,45,45,46,69,79,72,52,47,47,43,40,37,32,44,44,44,35,36,40,35,31,34,26,32,44,40,37,24,32,39,52,47,47,45,46,43,53,48,40,41,55,62,82,82,72,69,68,40,40,48,38,36,36,34,40,40,33,26,20,29,20,17,15,8,21,22,14,10,5,0,3,12,13,10,5,0,0,0,0,0,0,0,0,5,8,15,8,5,8,12,15,8,0,0,8,13,5,12,15,12,0,0,0,0,5,8,12,8,5,0,0,0,0,5,13,8,0,8,-1,-1,-1,-1,-1,-1,-1,-1,-1,-1,-1,-1,-1,-1,-1,-1,-1,-1,-1,-1,-1,-1,-1,-1,-1,-1,-1,-1,-1,-1,-1,-1,-1,-1,-1,-1,-1,-1,-1,-1,-1,-1,-1,-1,-1,-1,-1
-1,-1,-1,-1,-1,-1,-1,-1,-1,-1,-1,-1,-1,-1,-1,-1,-1,-1,-1,-1,-1,-1,-1,-1,-1,-1,-1,-1,-1,-1,-1,-1,-1,-1,-1,-1,-1,-1,-1,-1,-1,-1,-1,-1,-1,-1,-1,-1,-1,-1,-1,-1,-1,-1,-1,-1,-1,-1,-1,-1,-1,-1,-1,-1,-1,-1,-1,-1,33,33,36,49,59,52,40,38,37,27,36,37,26,19,22,27,38,49,57,61,76,73,52,46,37,45,45,49,49,42,40,35,33,44,36,42,49,55,43,34,20,12,18,22,40,50,56,71,78,55,47,54,58,66,68,64,57,65,66,63,62,60,50,52,52,59,77,84,67,54,60,55,52,52,55,46,41,32,24,20,16,27,40,47,29,20,8,13,26,36,28,29,30,37,36,35,36,36,40,38,45,49,49,47,55,60,52,44,45,57,57,53,48,39,36,37,32,27,32,37,32,27,28,33,40,40,37,37,29,17,17,8,8,8,5,0,12,15,12,12,12,0,0,12,9,13,5,10,13,13,12,13,8,5,5,0,8,15,12,20,16,17,10,8,8,13,8,0,0,0,5,10,12,10,8,13,3,8,12,13,13,16,29,32,20,17,20,22,16,17,19,24,30,28,24,20,16,23,22,18,19,16,15,8,13,5,3,11,16,12,20,29,17,11,16,22,21,21,30,24,20,17,18,16,25,20,12,16,24,23,26,20,15,22,22,22,21,18,16,16,12,13,10,8,8,12,12,12,12,12,13,11,8,12,13,9,21,18,13,12,10,13,12,8,5,0,0,0,0,0,0,8,18,26,21,5,0,0,0,0,0,0,0,8,8,5,8,12,8,13,8,12,12,0,12,12,0,0,3,13,13,8,13,11,13,21,32,34,20,17,19,22,24,21,17,11,13,20,16,20,28,27,35,50,78,87,62,48,39,43,43,44,48,40,40,45,35,31,32,33,31,32,34,41,48,44,44,40,41,36,35,39,35,43,47,47,51,56,51,51,79,94,85,90,85,67,54,42,26,30,27,25,31,20,29,27,33,25,18,26,26,15,4,13,13,23,25,20,14,18,12,13,13,8,5,0,0,0,0,0,0,0,0,0,0,0,12,12,0,0,0,12,12,5,8,15,8,5,13,16,12,0,0,0,0,5,8,8,3,3,5,0,0,0,8,13,5,0,5,-1,-1,-1,-1,-1,-1,-1,-1,-1,-1,-1,-1,-1,-1,-1,-1,-1,-1,-1,-1,-1,-1,-1,-1,-1,-1,-1,-1,-1,-1,-1,-1,-1,-1,-1,-1,-1,-1,-1,-1,-1,-1,-1,-1,-1,-1,-1
-1,-1,-1,-1,-1,-1,-1,-1,-1,-1,-1,-1,-1,-1,-1,-1,-1,-1,-1,-1,-1,-1,-1,-1,-1,-1,-1,-1,-1,-1,-1,-1,-1,-1,-1,-1,-1,-1,-1,-1,-1,-1,-1,-1,-1,-1,-1,-1,-1,-1,-1,-1,-1,-1,-1,-1,-1,-1,-1,-1,-1,-1,-1,-1,-1,-1,-1,-1,28,37,42,52,54,40,34,30,27,27,40,43,33,31,33,49,47,47,51,51,66,41,13,9,7,20,28,41,48,46,36,35,34,31,36,40,50,52,53,46,29,20,16,8,17,42,65,73,69,63,50,49,57,52,60,63,52,60,66,66,63,53,51,52,55,50,77,85,79,54,55,64,59,67,69,61,58,53,40,41,32,35,47,47,39,36,46,34,30,36,29,38,38,36,43,38,36,35,40,36,48,49,45,49,56,51,56,55,49,53,60,53,45,40,40,38,31,29,31,27,28,31,31,32,36,35,31,27,16,16,16,15,12,12,8,5,12,15,12,8,13,5,0,8,14,13,3,8,5,10,8,7,17,18,8,5,8,15,12,15,8,10,13,8,5,3,5,0,0,0,8,13,8,13,18,18,13,13,12,8,11,13,29,34,24,24,24,25,24,28,30,27,23,16,15,15,20,27,21,21,21,16,8,20,11,12,18,17,16,24,23,27,23,20,20,25,17,13,17,17,15,20,25,20,12,12,16,20,29,29,22,25,16,20,11,20,22,11,12,13,10,5,10,12,13,16,15,15,16,12,8,8,13,13,20,12,14,14,13,8,5,8,12,13,13,8,5,0,0,0,0,8,10,21,21,5,0,0,0,0,0,0,0,8,13,5,8,13,8,13,5,12,12,0,12,12,0,0,5,10,8,9,5,10,10,5,20,24,20,22,22,22,24,24,17,13,17,20,16,17,26,31,27,56,78,77,51,35,31,31,31,35,40,45,40,36,31,31,31,33,32,37,33,36,37,42,36,40,39,37,41,40,44,64,59,50,52,48,56,72,96,95,90,70,64,46,32,11,17,24,22,19,13,8,18,17,8,5,5,8,18,19,17,20,12,17,17,17,22,22,15,16,7,5,0,0,0,0,0,0,0,0,0,0,0,0,12,12,0,0,5,13,8,3,13,9,13,13,11,13,8,0,0,0,0,8,15,15,11,13,8,0,0,0,12,12,5,8,8,-1,-1,-1,-1,-1,-1,-1,-1,-1,-1,-1,-1,-1,-1,-1,-1,-1,-1,-1,-1,-1,-1,-1,-1,-1,-1,-1,-1,-1,-1,-1,-1,-1,-1,-1,-1,-1,-1,-1,-1,-1,-1,-1,-1,-1,-1,-1
-1,-1,-1,-1,-1,-1,-1,-1,-1,-1,-1,-1,-1,-1,-1,-1,-1,-1,-1,-1,-1,-1,-1,-1,-1,-1,-1,-1,-1,-1,-1,-1,-1,-1,-1,-1,-1,-1,-1,-1,-1,-1,-1,-1,-1,-1,-1,-1,-1,-1,-1,-1,-1,-1,-1,-1,-1,-1,-1,-1,-1,-1,-1,-1,-1,-1,-1,-1,32,44,49,49,41,29,27,22,27,37,49,47,42,38,37,45,51,35,37,31,46,26,15,7,15,17,24,23,31,38,41,38,38,40,35,35,40,43,59,51,31,25,17,17,13,17,42,59,66,63,60,52,52,56,42,50,55,50,63,66,68,65,57,59,62,49,60,82,93,76,66,62,68,69,68,61,63,61,52,53,52,48,44,44,40,46,62,57,44,31,29,38,40,32,33,40,35,41,45,43,46,50,46,46,49,45,57,55,47,47,55,60,50,38,45,41,30,21,28,24,28,31,31,35,36,37,37,24,22,17,7,8,12,16,13,10,12,16,13,5,13,8,0,5,8,8,5,3,9,3,0,3,14,10,13,13,12,12,12,8,11,10,13,12,0,0,0,0,5,8,15,8,10,17,20,20,14,8,12,18,14,23,34,29,24,24,33,24,25,38,23,27,16,13,12,16,29,33,38,26,13,8,15,19,22,15,22,22,19,27,28,28,28,28,28,24,24,20,16,24,28,23,26,20,15,15,15,17,18,21,22,24,26,26,23,8,17,20,12,12,14,18,12,16,13,13,12,12,13,13,12,8,8,20,26,18,9,12,3,5,0,5,3,5,8,13,13,12,12,8,5,3,9,5,13,8,0,0,0,0,0,0,5,13,8,5,13,8,12,12,5,13,8,5,13,8,8,12,8,4,8,8,5,5,13,8,5,18,13,18,18,21,19,17,8,8,25,19,12,15,32,32,27,42,59,74,64,49,36,31,27,31,40,37,40,35,31,31,31,37,37,36,41,41,37,24,24,29,31,37,42,50,50,52,60,53,49,40,53,72,79,71,39,30,27,22,20,30,34,25,22,19,12,15,8,5,13,8,10,23,27,24,24,25,21,16,12,8,20,11,12,12,15,8,0,0,0,0,0,0,0,5,3,5,0,0,8,13,5,0,8,13,5,5,8,12,12,8,11,10,5,0,0,0,0,12,12,12,16,9,10,8,5,0,12,12,8,15,15,-1,-1,-1,-1,-1,-1,-1,-1,-1,-1,-1,-1,-1,-1,-1,-1,-1,-1,-1,-1,-1,-1,-1,-1,-1,-1,-1,-1,-1,-1,-1,-1,-1,-1,-1,-1,-1,-1,-1,-1,-1,-1,-1,-1,-1,-1,-1
-1,-1,-1,-1,-1,-1,-1,-1,-1,-1,-1,-1,-1,-1,-1,-1,-1,-1,-1,-1,-1,-1,-1,-1,-1,-1,-1,-1,-1,-1,-1,-1,-1,-1,-1,-1,-1,-1,-1,-1,-1,-1,-1,-1,-1,-1,-1,-1,-1,-1,-1,-1,-1,-1,-1,-1,-1,-1,-1,-1,-1,-1,-1,-1,-1,-1,-1,-1,-1,55,57,48,41,38,30,22,30,39,50,57,45,46,37,33,34,21,17,29,33,20,20,17,21,24,29,28,28,43,48,45,48,42,35,35,35,36,48,49,38,24,20,20,18,8,21,45,59,57,60,67,60,58,50,52,57,54,60,66,66,59,56,66,74,63,55,78,72,72,66,64,57,62,61,63,61,65,60,64,59,64,56,51,48,52,59,63,60,53,45,39,33,32,37,33,35,43,45,41,36,47,46,46,49,46,50,52,52,47,60,63,57,38,48,39,22,30,26,22,34,37,37,40,40,38,34,30,22,18,5,5,10,13,8,10,14,18,13,8,12,12,0,5,8,8,5,5,3,5,0,8,0,8,5,8,12,13,13,13,10,5,8,13,5,0,0,5,10,13,12,10,13,8,8,21,25,24,24,25,22,32,33,32,28,24,28,32,20,15,12,21,9,10,12,21,27,36,37,28,17,15,17,19,22,20,30,24,33,32,31,27,27,31,31,28,28,28,28,28,28,28,29,41,36,32,28,28,25,20,22,20,27,37,29,18,17,25,20,16,18,17,15,15,16,7,5,5,7,16,16,15,12,17,17,13,14,8,0,0,5,10,12,13,8,5,8,12,12,15,8,8,0,9,13,5,0,0,0,0,5,8,13,10,5,8,13,5,12,12,8,13,5,3,13,13,13,12,13,13,15,8,0,0,12,12,0,12,16,12,8,18,14,11,13,12,16,25,20,8,24,30,30,39,55,66,71,62,41,28,32,33,37,33,37,31,27,28,27,33,37,35,45,42,36,32,41,38,31,28,33,42,29,27,36,37,37,40,48,50,36,25,22,22,22,21,21,17,29,27,21,18,13,8,5,5,18,11,20,29,29,19,18,10,20,20,20,8,8,15,8,5,8,13,5,0,0,0,0,0,5,10,13,8,0,0,5,13,8,0,8,15,12,12,8,5,0,3,13,10,5,0,0,0,5,13,8,12,12,5,9,13,8,8,15,8,13,8,8,15,-1,-1,-1,-1,-1,-1,-1,-1,-1,-1,-1,-1,-1,-1,-1,-1,-1,-1,-1,-1,-1,-1,-1,-1,-1,-1,-1,-1,-1,-1,-1,-1,-1,-1,-1,-1,-1,-1,-1,-1,-1,-1,-1,-1,-1,-1
-1,-1,-1,-1,-1,-1,-1,-1,-1,-1,-1,-1,-1,-1,-1,-1,-1,-1,-1,-1,-1,-1,-1,-1,-1,-1,-1,-1,-1,-1,-1,-1,-1,-1,-1,-1,-1,-1,-1,-1,-1,-1,-1,-1,-1,-1,-1,-1,-1,-1,-1,-1,-1,-1,-1,-1,-1,-1,-1,-1,-1,-1,-1,-1,-1,-1,-1,-1,-1,64,59,52,43,40,27,22,32,38,50,57,47,39,24,27,11,17,18,27,31,29,34,25,22,22,22,19,27,42,41,39,43,38,36,33,32,37,35,45,44,41,33,24,12,12,13,26,36,46,57,65,60,55,49,46,49,49,52,63,65,59,60,59,69,66,56,55,59,50,60,59,59,60,63,62,60,65,61,55,64,59,59,59,60,72,67,71,71,67,55,48,38,35,36,43,41,46,44,43,43,50,43,46,49,47,48,50,49,45,62,68,56,45,46,39,22,26,30,22,24,37,37,36,44,42,31,22,17,8,5,10,10,10,13,5,18,17,12,13,8,13,5,3,13,13,3,0,5,8,12,13,12,13,12,12,12,12,16,11,3,0,5,10,13,12,12,18,14,18,16,17,8,0,12,17,24,34,29,24,24,25,30,34,25,24,25,24,25,21,13,5,13,17,25,26,24,21,18,18,17,20,31,30,26,41,41,36,40,36,31,31,31,31,35,40,35,40,40,36,32,27,31,39,44,36,31,31,27,25,19,15,12,29,21,14,16,25,17,13,13,16,15,15,15,16,25,25,16,15,17,21,26,24,20,16,7,5,0,0,3,12,9,8,15,8,0,0,0,8,15,13,12,13,8,0,0,0,0,0,8,15,8,5,5,13,8,5,13,8,12,12,0,5,8,8,5,0,5,8,8,5,5,8,20,10,5,8,13,11,13,11,18,11,14,18,16,21,19,13,16,29,30,37,46,56,66,71,75,55,40,29,29,29,33,28,28,28,28,26,34,32,33,33,49,48,43,41,29,25,30,23,3,33,40,34,31,51,48,38,29,19,25,19,18,17,8,12,16,17,18,11,13,12,17,21,19,18,16,16,16,17,14,12,12,13,14,13,13,12,13,10,5,10,10,5,0,0,0,0,8,13,13,12,0,0,0,8,15,8,5,8,12,12,13,10,5,5,8,13,10,5,0,0,8,13,4,13,8,3,11,16,13,13,8,8,13,5,5,10,-1,-1,-1,-1,-1,-1,-1,-1,-1,-1,-1,-1,-1,-1,-1,-1,-1,-1,-1,-1,-1,-1,-1,-1,-1,-1,-1,-1,-1,-1,-1,-1,-1,-1,-1,-1,-1,-1,-1,-1,-1,-1,-1,-1,-1,-1
-1,-1,-1,-1,-1,-1,-1,-1,-1,-1,-1,-1,-1,-1,-1,-1,-1,-1,-1,-1,-1,-1,-1,-1,-1,-1,-1,-1,-1,-1,-1,-1,-1,-1,-1,-1,-1,-1,-1,-1,-1,-1,-1,-1,-1,-1,-1,-1,-1,-1,-1,-1,-1,-1,-1,-1,-1,-1,-1,-1,-1,-1,-1,-1,-1,-1,-1,-1,-1,65,59,43,36,30,22,22,32,38,44,43,41,23,11,17,9,20,17,32,36,37,30,27,21,19,20,13,26,33,25,24,28,33,35,32,27,32,32,38,39,49,50,35,18,12,12,13,22,38,47,49,57,52,44,44,44,44,50,65,65,57,59,56,55,52,58,65,63,50,53,56,57,57,65,63,61,61,66,64,55,55,59,59,62,71,75,79,79,71,60,51,49,46,46,50,46,43,41,43,43,42,40,48,55,52,45,53,57,49,52,57,60,48,35,28,25,24,19,20,34,37,37,45,44,45,34,22,18,5,8,13,5,5,10,10,12,15,12,13,8,10,13,13,9,9,13,12,13,13,12,8,8,8,12,12,12,12,12,13,10,5,0,5,8,12,12,14,18,14,21,13,3,0,12,28,30,18,18,20,27,30,32,26,18,20,22,20,24,28,20,25,28,34,34,34,25,19,17,20,28,33,36,40,41,42,45,39,40,35,39,48,47,52,52,47,47,56,47,47,52,44,35,31,33,32,35,35,32,31,29,24,21,20,23,14,17,17,19,25,24,20,15,15,20,24,23,24,20,12,18,17,24,29,20,16,25,20,17,8,9,12,3,0,8,13,8,3,5,5,8,8,8,3,5,0,0,0,0,0,12,12,0,0,8,13,5,8,13,5,12,12,0,0,0,0,0,0,0,0,0,0,8,15,11,18,10,4,10,11,8,18,16,16,18,14,13,19,21,16,11,19,26,30,35,44,63,71,69,57,45,32,26,31,23,27,31,31,31,34,26,28,28,31,39,53,41,19,13,29,32,16,21,50,46,44,43,42,49,28,20,16,21,13,3,10,13,11,18,18,14,13,16,15,20,25,16,13,10,12,16,13,8,7,15,8,11,13,16,17,18,14,18,8,11,13,8,5,0,0,8,15,15,8,0,0,0,5,8,13,13,8,5,0,5,13,8,0,0,5,13,8,0,5,13,8,3,12,9,10,13,13,5,8,0,8,15,12,12,13,-1,-1,-1,-1,-1,-1,-1,-1,-1,-1,-1,-1,-1,-1,-1,-1,-1,-1,-1,-1,-1,-1,-1,-1,-1,-1,-1,-1,-1,-1,-1,-1,-1,-1,-1,-1,-1,-1,-1,-1,-1,-1,-1,-1,-1,-1
-1,-1,-1,-1,-1,-1,-1,-1,-1,-1,-1,-1,-1,-1,-1,-1,-1,-1,-1,-1,-1,-1,-1,-1,-1,-1,-1,-1,-1,-1,-1,-1,-1,-1,-1,-1,-1,-1,-1,-1,-1,-1,-1,-1,-1,-1,-1,-1,-1,-1,-1,-1,-1,-1,-1,-1,-1,-1,-1,-1,-1,-1,-1,-1,-1,-1,-1,-1,-1,60,47,48,47,29,22,27,35,36,38,36,31,20,12,9,17,30,27,32,35,32,21,19,18,12,12,8,15,18,20,14,30,37,33,32,27,31,26,31,28,51,52,39,17,16,12,3,16,34,54,55,52,59,54,54,57,58,48,60,60,54,52,62,52,47,55,66,67,52,53,54,57,48,59,55,53,57,59,69,60,51,55,59,59,63,72,76,76,73,70,69,60,48,45,43,44,41,37,36,35,40,45,45,57,57,50,51,53,51,45,47,51,43,40,37,20,20,24,29,31,35,35,42,44,36,28,20,15,12,10,8,3,3,5,13,16,15,12,12,12,5,8,12,12,12,12,12,8,8,12,8,5,0,0,0,0,0,0,5,10,13,12,8,5,0,8,13,8,12,9,10,13,17,28,40,30,5,3,23,37,38,26,12,8,18,22,15,20,19,24,27,35,45,46,43,36,24,33,32,35,40,38,43,44,43,40,39,43,57,55,64,63,72,63,59,59,59,50,51,56,48,48,40,45,48,48,43,42,40,36,43,38,32,30,21,29,24,28,27,28,28,28,24,24,29,17,11,17,18,8,8,13,18,8,20,24,26,13,12,20,17,7,5,5,10,12,12,10,5,0,0,0,5,3,5,0,0,0,0,8,13,5,0,12,12,0,12,12,0,12,12,0,0,0,0,0,0,5,8,8,5,8,13,12,13,10,13,13,13,3,5,15,16,19,20,12,18,21,21,16,16,17,32,35,31,38,43,44,44,38,36,34,31,32,31,31,31,31,32,29,24,27,31,37,36,33,42,33,47,38,31,49,67,52,43,38,34,23,12,12,8,5,0,0,5,8,18,16,21,23,24,19,24,25,21,19,20,12,15,7,10,10,4,8,13,13,16,16,18,17,22,19,13,11,8,15,8,0,0,5,8,8,5,0,0,0,0,0,5,8,13,13,12,8,12,12,0,0,0,12,12,0,8,13,5,5,13,8,13,4,10,13,8,0,5,8,12,12,8,-1,-1,-1,-1,-1,-1,-1,-1,-1,-1,-1,-1,-1,-1,-1,-1,-1,-1,-1,-1,-1,-1,-1,-1,-1,-1,-1,-1,-1,-1,-1,-1,-1,-1,-1,-1,-1,-1,-1,-1,-1,-1,-1,-1,-1,-1
-1,-1,-1,-1,-1,-1,-1,-1,-1,-1,-1,-1,-1,-1,-1,-1,-1,-1,-1,-1,-1,-1,-1,-1,-1,-1,-1,-1,-1,-1,-1,-1,-1,-1,-1,-1,-1,-1,-1,-1,-1,-1,-1,-1,-1,-1,-1,-1,-1,-1,-1,-1,-1,-1,-1,-1,-1,-1,-1,-1,-1,-1,-1,-1,-1,-1,-1,-1,-1,65,43,47,48,33,22,33,38,43,33,26,23,24,12,10,18,27,30,24,40,37,21,13,8,8,10,12,16,16,15,5,14,34,32,23,24,26,26,31,22,42,49,46,29,20,12,8,15,20,42,54,57,58,56,56,57,62,52,49,53,53,44,48,51,45,45,55,59,57,60,56,64,58,50,50,49,48,53,54,53,47,43,43,47,57,60,55,59,68,75,65,51,43,45,46,50,42,36,43,43,47,45,43,49,59,52,53,38,45,40,44,47,47,43,36,15,15,28,31,32,37,37,36,36,28,28,20,5,13,8,10,12,9,3,12,15,16,13,12,12,0,0,0,0,0,0,0,8,15,12,13,10,5,0,0,0,0,0,0,5,8,12,13,13,12,15,8,5,10,10,5,16,24,26,27,21,17,21,26,36,36,18,13,21,29,24,28,28,32,37,36,35,37,44,46,45,39,49,44,57,60,70,78,80,70,64,60,60,64,67,71,71,74,74,75,71,67,68,63,59,69,77,67,73,63,55,43,46,48,43,45,45,36,28,21,24,28,28,29,21,24,28,29,20,21,16,17,18,11,15,8,3,13,8,9,13,12,15,17,20,20,17,18,12,8,8,9,12,3,0,0,0,3,9,3,0,0,0,0,5,13,8,5,13,8,0,12,12,0,8,13,5,0,0,0,0,5,10,13,13,10,5,13,16,12,5,8,12,8,5,0,5,18,19,17,17,16,18,19,19,22,20,25,31,34,33,38,41,47,40,40,40,33,33,28,27,31,31,24,17,10,28,28,33,40,38,45,56,70,55,55,69,61,55,36,30,27,8,8,5,0,0,0,0,0,0,5,18,16,21,20,29,24,25,20,25,16,16,7,5,5,13,8,0,5,8,12,13,11,8,18,16,16,11,10,8,13,5,0,0,0,0,0,0,0,0,0,0,5,8,8,8,12,15,12,13,5,0,0,12,12,5,13,8,0,0,8,9,10,13,10,10,13,5,0,0,0,0,0,-1,-1,-1,-1,-1,-1,-1,-1,-1,-1,-1,-1,-1,-1,-1,-1,-1,-1,-1,-1,-1,-1,-1,-1,-1,-1,-1,-1,-1,-1,-1,-1,-1,-1,-1,-1,-1,-1,-1,-1,-1,-1,-1,-1,-1,-1
-1,-1,-1,-1,-1,-1,-1,-1,-1,-1,-1,-1,-1,-1,-1,-1,-1,-1,-1,-1,-1,-1,-1,-1,-1,-1,-1,-1,-1,-1,-1,-1,-1,-1,-1,-1,-1,-1,-1,-1,-1,-1,-1,-1,-1,-1,-1,-1,-1,-1,-1,-1,-1,-1,-1,-1,-1,-1,-1,-1,-1,-1,-1,-1,-1,-1,-1,-1,-1,-1,45,48,47,36,34,45,45,35,32,14,24,24,17,16,21,19,12,25,34,33,28,16,13,8,10,12,13,8,10,9,0,24,31,29,21,21,34,24,25,37,44,40,33,25,18,12,16,15,25,45,50,56,56,56,54,59,52,44,50,58,65,57,50,53,50,47,50,52,59,63,62,63,59,54,49,49,45,49,48,53,52,48,40,46,50,57,60,65,67,54,49,44,40,46,43,40,35,38,41,44,44,41,54,56,53,46,35,42,45,37,44,39,44,36,20,20,34,37,37,37,32,31,27,32,27,24,13,8,10,13,12,3,5,12,15,12,13,12,13,5,0,0,0,0,0,5,13,8,0,8,12,3,0,0,0,5,8,8,5,0,0,5,7,16,7,5,8,13,13,12,19,27,22,22,22,16,21,13,19,20,12,20,43,36,37,31,31,36,40,39,39,50,64,64,78,76,89,85,89,88,87,85,81,88,67,67,64,64,68,67,67,72,72,72,72,67,67,67,70,78,87,83,80,75,59,61,54,55,52,50,45,47,51,42,28,20,15,20,29,28,24,22,21,11,21,15,10,13,8,15,12,12,10,10,12,13,4,13,18,13,20,11,12,17,15,7,13,5,0,0,5,10,5,8,0,5,8,8,8,13,8,8,13,5,0,12,12,0,5,13,8,0,5,8,8,10,13,5,5,13,8,12,16,13,5,0,5,8,8,5,0,8,15,12,18,16,19,20,16,24,24,19,30,32,35,33,35,45,33,31,37,28,23,28,28,28,25,21,16,22,24,21,27,37,36,43,60,63,59,57,57,46,36,30,19,17,13,13,3,0,0,0,0,0,0,5,13,8,7,17,21,16,18,12,7,11,17,15,5,5,13,8,0,0,0,0,5,10,10,5,18,14,11,13,8,10,10,5,0,0,0,0,0,0,0,0,0,8,15,15,8,0,12,12,13,8,0,5,13,8,10,10,5,0,0,8,8,8,8,5,5,13,8,0,0,0,0,0,0,-1,-1,-1,-1,-1,-1,-1,-1,-1,-1,-1,-1,-1,-1,-1,-1,-1,-1,-1,-1,-1,-1,-1,-1,-1,-1,-1,-1,-1,-1,-1,-1,-1,-1,-1,-1,-1,-1,-1,-1,-1,-1,-1,-1,-1
-1,-1,-1,-1,-1,-1,-1,-1,-1,-1,-1,-1,-1,-1,-1,-1,-1,-1,-1,-1,-1,-1,-1,-1,-1,-1,-1,-1,-1,-1,-1,-1,-1,-1,-1,-1,-1,-1,-1,-1,-1,-1,-1,-1,-1,-1,-1,-1,-1,-1,-1,-1,-1,-1,-1,-1,-1,-1,-1,-1,-1,-1,-1,-1,-1,-1,-1,-1,-1,-1,54,51,51,44,42,48,41,29,16,11,22,24,22,21,22,19,13,13,29,44,40,26,12,13,12,0,8,13,17,21,16,26,34,22,29,24,24,29,21,37,40,40,41,21,20,16,16,16,18,35,45,54,56,56,56,57,64,52,40,57,65,56,53,52,60,62,47,50,54,58,64,56,59,59,58,60,65,61,48,48,52,47,49,46,51,49,47,51,44,50,53,47,49,42,38,35,40,45,51,44,43,40,49,57,56,50,35,38,45,42,33,36,44,36,24,26,31,35,35,35,31,34,33,29,25,17,13,10,13,15,8,0,0,12,15,12,12,13,13,15,5,0,0,0,0,8,13,5,0,8,13,5,0,0,0,3,13,13,3,0,0,0,3,9,3,8,15,12,8,17,24,23,14,19,20,12,3,13,30,25,27,35,40,40,37,31,35,45,45,48,60,87,95,87,80,93,87,88,89,93,88,75,70,57,63,71,63,60,60,51,56,51,51,50,51,55,59,63,72,76,81,77,74,68,69,61,63,59,57,59,57,54,54,42,33,33,24,19,24,24,29,22,25,16,21,28,24,25,27,20,15,17,17,20,15,12,15,8,10,10,8,15,8,14,17,16,12,0,0,5,10,13,15,8,5,10,13,13,12,10,5,8,13,5,0,12,12,0,0,8,15,12,13,13,13,13,8,8,8,8,13,8,13,11,13,12,13,13,13,13,12,8,8,13,11,18,19,14,11,20,24,24,21,27,30,35,30,30,37,27,19,20,29,28,24,20,18,21,34,41,36,30,30,29,40,43,44,46,29,27,22,22,19,18,8,3,8,8,5,0,0,0,0,0,0,3,13,13,13,12,11,16,13,12,12,13,18,16,18,13,10,5,0,0,0,0,0,5,10,10,8,13,13,12,13,5,13,8,0,0,0,0,0,0,0,0,0,8,15,15,8,0,12,12,8,15,12,13,10,8,13,5,0,0,0,8,13,5,0,0,0,12,12,0,0,0,0,0,0,-1,-1,-1,-1,-1,-1,-1,-1,-1,-1,-1,-1,-1,-1,-1,-1,-1,-1,-1,-1,-1,-1,-1,-1,-1,-1,-1,-1,-1,-1,-1,-1,-1,-1,-1,-1,-1,-1,-1,-1,-1,-1,-1,-1,-1
-1,-1,-1,-1,-1,-1,-1,-1,-1,-1,-1,-1,-1,-1,-1,-1,-1,-1,-1,-1,-1,-1,-1,-1,-1,-1,-1,-1,-1,-1,-1,-1,-1,-1,-1,-1,-1,-1,-1,-1,-1,-1,-1,-1,-1,-1,-1,-1,-1,-1,-1,-1,-1,-1,-1,-1,-1,-1,-1,-1,-1,-1,-1,-1,-1,-1,-1,-1,-1,-1,56,59,50,47,47,49,33,22,10,8,20,29,27,22,27,25,20,13,17,40,43,31,19,26,23,5,12,13,17,25,25,32,32,27,33,34,21,21,25,33,38,43,49,36,27,25,18,22,19,24,38,53,56,56,56,65,65,56,50,42,52,54,48,47,62,60,50,47,46,46,53,52,55,55,64,71,80,76,67,52,52,51,52,49,55,62,53,43,39,42,47,47,47,44,45,46,48,48,40,43,38,33,42,52,61,54,35,35,42,45,33,37,39,37,24,29,34,35,35,35,33,40,38,28,16,20,8,8,12,8,5,0,5,13,11,13,12,9,17,17,8,0,0,0,0,12,12,0,0,12,12,5,8,8,5,5,8,8,5,5,0,5,5,4,8,15,8,5,13,26,21,20,14,21,16,12,17,29,32,30,42,36,35,36,33,31,44,54,63,69,81,86,88,84,66,71,68,63,65,74,67,71,67,64,68,68,59,56,51,52,52,55,59,59,59,55,55,55,51,47,48,49,49,48,59,50,54,60,57,64,63,66,67,58,45,37,33,22,13,17,20,26,26,19,19,19,28,34,27,20,16,20,25,25,20,17,23,13,13,13,5,8,13,11,20,17,8,0,0,8,13,4,13,8,13,16,7,5,8,8,5,5,10,10,3,13,8,0,0,5,8,12,8,5,7,16,13,13,13,11,11,11,11,13,16,15,16,7,5,8,12,13,10,5,10,17,17,10,12,13,20,25,21,30,37,33,35,30,29,28,28,29,20,15,15,20,25,26,34,50,44,43,36,34,37,32,28,20,16,18,14,13,10,5,0,0,0,0,0,0,0,0,5,8,12,8,8,8,11,13,12,12,8,8,12,12,8,18,11,8,5,0,0,0,0,0,0,0,5,13,8,13,12,13,13,8,12,12,0,0,0,5,3,5,0,0,5,10,4,10,5,8,15,8,5,8,12,8,5,8,13,5,0,0,0,12,12,0,5,8,12,15,8,0,0,0,0,0,0,-1,-1,-1,-1,-1,-1,-1,-1,-1,-1,-1,-1,-1,-1,-1,-1,-1,-1,-1,-1,-1,-1,-1,-1,-1,-1,-1,-1,-1,-1,-1,-1,-1,-1,-1,-1,-1,-1,-1,-1,-1,-1,-1,-1,-1
-1,-1,-1,-1,-1,-1,-1,-1,-1,-1,-1,-1,-1,-1,-1,-1,-1,-1,-1,-1,-1,-1,-1,-1,-1,-1,-1,-1,-1,-1,-1,-1,-1,-1,-1,-1,-1,-1,-1,-1,-1,-1,-1,-1,-1,-1,-1,-1,-1,-1,-1,-1,-1,-1,-1,-1,-1,-1,-1,-1,-1,-1,-1,-1,-1,-1,-1,-1,-1,-1,52,55,51,47,47,44,36,25,8,23,32,36,32,22,24,27,13,8,17,45,52,52,41,40,34,18,15,12,17,20,20,30,27,32,36,35,30,32,27,31,35,40,42,42,43,37,20,22,22,20,16,34,50,56,56,65,65,58,52,48,56,65,52,48,52,58,52,53,46,46,47,50,52,52,47,69,83,81,69,56,56,51,47,50,57,57,53,54,48,49,47,51,55,56,48,45,43,39,31,33,40,40,47,45,60,55,35,35,38,37,33,38,40,37,29,34,34,33,38,34,34,39,40,27,20,14,17,8,0,0,0,5,10,10,3,10,17,13,13,11,13,5,0,0,0,8,13,5,5,13,8,10,13,13,13,12,8,8,9,3,0,8,13,12,13,8,5,12,21,22,21,22,27,29,12,12,29,36,40,38,43,41,43,34,38,42,54,64,68,78,74,76,63,53,59,50,53,60,57,58,57,64,59,60,60,51,55,55,59,73,68,62,63,58,58,59,59,59,55,47,48,48,49,49,47,43,46,53,54,55,64,69,70,68,68,50,39,40,30,29,24,25,24,22,19,12,12,21,24,29,21,24,22,24,25,24,24,16,16,7,5,0,16,25,16,15,5,0,0,8,13,10,13,5,16,25,17,5,8,9,5,5,8,12,7,13,10,5,0,0,0,0,0,8,15,13,5,9,10,13,8,10,11,8,12,12,12,13,8,5,8,4,10,10,8,25,16,5,8,11,13,18,14,18,32,33,32,32,26,21,24,23,24,20,15,20,24,28,35,49,48,45,36,27,20,15,15,15,15,22,22,11,3,0,0,0,0,0,0,0,0,0,3,13,13,15,8,8,13,5,0,0,5,10,13,12,15,12,13,5,0,0,0,0,0,0,5,8,12,15,8,12,12,13,16,12,8,13,5,0,0,3,9,3,0,5,10,13,15,7,10,13,8,5,0,0,0,0,5,5,13,8,5,8,12,15,8,5,10,13,12,8,5,0,0,0,0,0,0,0,-1,-1,-1,-1,-1,-1,-1,-1,-1,-1,-1,-1,-1,-1,-1,-1,-1,-1,-1,-1,-1,-1,-1,-1,-1,-1,-1,-1,-1,-1,-1,-1,-1,-1,-1,-1,-1,-1,-1,-1,-1,-1,-1,-1
-1,-1,-1,-1,-1,-1,-1,-1,-1,-1,-1,-1,-1,-1,-1,-1,-1,-1,-1,-1,-1,-1,-1,-1,-1,-1,-1,-1,-1,-1,-1,-1,-1,-1,-1,-1,-1,-1,-1,-1,-1,-1,-1,-1,-1,-1,-1,-1,-1,-1,-1,-1,-1,-1,-1,-1,-1,-1,-1,-1,-1,-1,-1,-1,-1,-1,-1,-1,-1,-1,-1,51,47,47,44,40,41,20,16,22,32,29,34,24,13,5,5,0,20,40,51,52,38,44,43,27,16,15,11,15,15,16,19,30,37,36,38,33,32,33,35,35,35,40,45,45,35,20,20,12,8,18,34,50,56,63,66,58,54,43,58,59,54,53,54,57,57,54,47,46,46,46,53,52,44,33,50,60,59,57,52,52,51,65,62,56,50,50,45,43,43,52,64,63,55,48,38,33,42,48,43,43,46,47,52,52,36,36,35,35,35,35,38,33,34,34,29,41,42,31,34,37,24,22,14,10,13,8,0,0,0,8,13,5,0,5,25,21,3,3,13,8,0,0,0,5,10,13,13,11,11,10,5,5,8,12,13,11,8,4,8,15,10,3,5,3,14,25,25,20,19,22,22,23,13,24,31,35,38,40,41,46,47,42,55,50,55,62,67,65,59,54,58,60,65,61,63,61,60,61,57,52,56,52,52,51,56,64,72,75,75,71,67,62,63,64,63,62,63,60,60,51,53,54,50,57,48,40,45,48,45,60,66,78,78,64,49,55,41,32,24,22,22,22,21,21,21,20,26,23,37,28,19,19,28,24,20,20,12,10,8,3,17,19,21,13,12,12,12,8,13,4,15,8,17,13,11,18,13,13,9,8,18,14,8,8,15,8,5,8,12,12,12,15,8,8,13,12,13,8,5,5,13,8,0,0,0,5,13,23,14,3,8,17,13,17,17,5,10,10,5,8,11,13,29,32,27,27,19,24,32,37,31,33,28,28,27,31,36,42,43,34,16,10,15,16,15,15,15,17,18,13,13,12,12,8,5,0,0,0,5,3,5,13,8,12,12,12,12,0,0,0,8,13,5,0,8,13,13,8,0,0,5,3,5,5,10,13,12,12,12,15,8,13,11,13,5,13,8,0,0,5,3,5,5,10,10,5,12,16,13,5,0,0,0,0,0,0,3,9,5,15,13,13,12,8,5,8,13,5,5,0,0,5,3,5,0,0,0,5,-1,-1,-1,-1,-1,-1,-1,-1,-1,-1,-1,-1,-1,-1,-1,-1,-1,-1,-1,-1,-1,-1,-1,-1,-1,-1,-1,-1,-1,-1,-1,-1,-1,-1,-1,-1,-1,-1,-1,-1,-1,-1,-1,-1
-1,-1,-1,-1,-1,-1,-1,-1,-1,-1,-1,-1,-1,-1,-1,-1,-1,-1,-1,-1,-1,-1,-1,-1,-1,-1,-1,-1,-1,-1,-1,-1,-1,-1,-1,-1,-1,-1,-1,-1,-1,-1,-1,-1,-1,-1,-1,-1,-1,-1,-1,-1,-1,-1,-1,-1,-1,-1,-1,-1,-1,-1,-1,-1,-1,-1,-1,-1,-1,-1,-1,51,47,43,36,45,41,30,24,32,24,24,36,29,5,0,0,0,25,39,47,49,34,25,38,44,24,12,3,8,8,3,15,24,31,42,49,49,41,41,43,43,43,43,44,47,48,28,30,17,12,17,21,34,50,61,73,68,54,48,47,54,56,57,57,57,57,56,53,46,46,46,47,50,49,45,32,44,54,59,48,47,47,47,56,50,42,45,50,43,52,50,62,56,60,51,44,37,42,43,44,44,43,44,53,49,43,35,36,35,35,35,35,35,34,29,34,48,43,32,27,33,34,22,18,8,13,8,8,5,0,8,13,5,0,5,25,20,0,0,8,13,5,0,0,0,5,8,8,8,13,5,0,5,3,5,5,10,10,7,15,8,13,16,13,12,17,19,20,16,17,24,16,15,26,32,35,36,36,40,43,44,44,52,54,54,52,52,52,42,50,52,64,61,61,61,58,58,57,61,60,60,60,68,59,64,60,65,75,69,64,72,63,59,63,71,71,67,67,64,64,60,61,63,61,63,66,65,59,62,61,58,59,72,73,69,66,65,52,46,28,24,22,22,27,36,32,28,22,17,29,29,29,16,24,23,23,21,14,11,12,12,16,26,35,24,20,16,13,17,17,10,10,13,12,15,15,10,8,20,12,10,10,17,13,3,12,12,8,14,8,13,8,10,5,12,13,3,5,0,0,0,12,12,0,0,0,0,8,20,24,12,8,16,21,13,20,13,11,8,13,12,11,8,28,27,22,31,23,21,29,37,37,24,28,28,28,28,24,32,30,20,17,21,14,13,16,15,15,11,3,3,12,12,12,15,8,0,0,0,3,9,3,12,12,12,12,13,8,8,12,8,13,12,0,0,5,13,16,12,0,0,3,9,5,10,10,5,8,15,12,8,8,13,3,13,8,12,12,0,0,0,0,5,10,10,5,0,12,15,12,0,0,0,0,5,8,8,5,3,8,10,5,8,0,0,5,13,4,13,13,8,8,10,13,8,0,0,0,8,-1,-1,-1,-1,-1,-1,-1,-1,-1,-1,-1,-1,-1,-1,-1,-1,-1,-1,-1,-1,-1,-1,-1,-1,-1,-1,-1,-1,-1,-1,-1,-1,-1,-1,-1,-1,-1,-1,-1,-1,-1,-1,-1,-1
-1,-1,-1,-1,-1,-1,-1,-1,-1,-1,-1,-1,-1,-1,-1,-1,-1,-1,-1,-1,-1,-1,-1,-1,-1,-1,-1,-1,-1,-1,-1,-1,-1,-1,-1,-1,-1,-1,-1,-1,-1,-1,-1,-1,-1,-1,-1,-1,-1,-1,-1,-1,-1,-1,-1,-1,-1,-1,-1,-1,-1,-1,-1,-1,-1,-1,-1,-1,-1,-1,-1,-1,47,44,37,38,41,40,33,34,27,30,44,33,0,5,3,5,20,36,44,42,34,26,26,38,38,27,5,5,0,0,3,16,29,39,52,49,46,44,44,44,44,44,44,54,52,36,31,21,20,20,23,20,35,48,72,71,62,50,49,57,59,60,57,54,53,54,60,54,53,57,61,61,61,60,43,41,45,54,57,47,39,38,38,35,51,52,49,48,47,42,41,40,52,52,43,37,35,40,47,46,41,53,58,52,41,33,40,43,43,38,36,35,31,38,46,45,39,31,22,34,24,17,8,12,16,15,15,8,0,8,12,3,5,10,12,17,5,0,5,13,8,0,0,0,0,0,5,8,10,8,5,3,9,3,0,5,13,12,13,8,17,18,17,13,25,18,22,22,30,27,22,27,32,33,38,38,40,52,54,60,63,62,54,49,50,50,42,52,52,56,57,49,54,58,61,57,58,58,56,60,69,71,67,67,64,57,49,36,38,50,48,47,51,64,69,59,64,65,61,57,57,60,64,71,73,78,73,69,68,68,67,66,71,70,70,69,66,65,43,38,30,29,28,32,32,31,17,13,17,27,34,24,29,32,33,25,21,18,16,12,13,26,25,26,13,13,12,20,17,13,13,11,5,8,8,5,5,13,11,15,12,16,16,7,8,15,15,5,9,0,9,3,5,13,8,0,0,0,0,0,12,12,0,0,0,0,3,14,23,18,8,18,11,20,11,8,8,15,8,8,13,7,17,17,21,39,36,22,22,20,22,22,15,16,11,16,22,21,18,12,18,20,19,13,13,12,12,15,8,8,13,8,0,8,13,5,0,0,5,3,5,8,15,15,12,13,8,15,12,13,13,8,0,0,0,12,16,15,12,8,5,3,5,12,8,5,13,8,0,0,8,13,5,12,12,12,12,0,5,8,12,13,10,5,0,0,12,15,12,0,0,0,0,3,13,13,3,0,5,10,12,10,5,5,10,10,10,14,4,14,8,13,13,12,0,0,0,8,-1,-1,-1,-1,-1,-1,-1,-1,-1,-1,-1,-1,-1,-1,-1,-1,-1,-1,-1,-1,-1,-1,-1,-1,-1,-1,-1,-1,-1,-1,-1,-1,-1,-1,-1,-1,-1,-1,-1,-1,-1,-1,-1,-1
-1,-1,-1,-1,-1,-1,-1,-1,-1,-1,-1,-1,-1,-1,-1,-1,-1,-1,-1,-1,-1,-1,-1,-1,-1,-1,-1,-1,-1,-1,-1,-1,-1,-1,-1,-1,-1,-1,-1,-1,-1,-1,-1,-1,-1,-1,-1,-1,-1,-1,-1,-1,-1,-1,-1,-1,-1,-1,-1,-1,-1,-1,-1,-1,-1,-1,-1,-1,-1,-1,-1,-1,54,39,38,40,38,38,39,40,31,28,39,37,5,8,13,8,17,37,40,38,35,31,16,25,52,45,18,10,5,0,8,15,20,29,43,44,44,44,44,44,46,49,52,55,58,54,46,34,23,24,20,15,18,26,53,60,60,49,50,53,52,60,57,62,62,55,60,55,52,61,59,59,59,53,53,49,44,49,53,48,52,53,51,54,61,59,54,44,39,37,37,38,51,50,40,40,35,42,47,44,46,52,57,52,41,35,41,46,43,38,40,38,33,38,42,40,31,26,25,24,34,18,5,12,15,13,13,8,0,8,13,5,3,12,8,10,10,5,0,12,12,0,0,0,0,5,5,9,12,18,13,5,3,5,0,5,13,7,13,8,13,16,13,25,21,13,19,22,31,32,22,32,33,38,38,41,52,64,67,69,67,62,49,49,54,64,69,70,62,59,57,54,59,63,61,60,57,59,57,54,64,60,60,55,60,47,43,44,41,33,31,36,36,36,35,39,48,55,50,53,56,60,61,67,67,73,78,67,60,71,70,67,66,69,73,77,81,81,74,67,50,49,32,20,15,24,25,8,13,23,19,24,31,38,39,35,22,11,12,15,7,10,13,12,15,8,22,22,12,16,16,13,13,8,0,5,10,10,3,8,12,12,12,13,11,8,8,8,3,8,3,4,10,10,5,0,0,0,0,0,12,12,0,0,0,0,5,10,13,16,12,8,13,8,15,12,15,8,0,0,12,16,13,10,18,36,47,47,34,20,22,22,16,13,17,17,17,15,5,3,5,10,20,8,5,0,0,8,15,15,9,12,0,5,13,8,0,0,5,3,5,5,8,8,12,12,12,12,0,5,3,5,0,0,0,12,12,8,12,15,8,5,10,13,3,8,13,5,5,3,5,10,10,8,13,8,15,12,13,13,12,8,5,0,0,0,12,15,12,0,0,0,0,5,8,8,5,5,5,8,13,13,5,10,10,5,5,8,15,4,13,8,12,12,0,0,0,5,-1,-1,-1,-1,-1,-1,-1,-1,-1,-1,-1,-1,-1,-1,-1,-1,-1,-1,-1,-1,-1,-1,-1,-1,-1,-1,-1,-1,-1,-1,-1,-1,-1,-1,-1,-1,-1,-1,-1,-1,-1,-1,-1,-1
-1,-1,-1,-1,-1,-1,-1,-1,-1,-1,-1,-1,-1,-1,-1,-1,-1,-1,-1,-1,-1,-1,-1,-1,-1,-1,-1,-1,-1,-1,-1,-1,-1,-1,-1,-1,-1,-1,-1,-1,-1,-1,-1,-1,-1,-1,-1,-1,-1,-1,-1,-1,-1,-1,-1,-1,-1,-1,-1,-1,-1,-1,-1,-1,-1,-1,-1,-1,-1,-1,-1,-1,-1,40,40,36,33,38,49,50,39,33,36,33,8,8,13,8,8,29,39,38,42,39,30,23,60,51,25,13,7,8,15,12,15,17,36,43,43,43,43,41,41,51,56,58,55,55,55,53,37,28,20,12,7,17,35,54,62,50,48,48,50,57,54,62,62,55,57,57,48,50,45,40,38,40,45,45,44,44,44,49,56,56,53,45,52,60,55,53,52,53,44,54,40,36,44,52,50,50,47,60,60,60,54,46,43,33,45,47,40,30,38,40,33,35,35,35,32,24,27,35,21,8,5,13,12,21,12,3,0,8,13,5,5,13,8,5,13,8,0,12,12,0,0,5,8,13,8,12,22,26,12,0,0,5,8,13,10,5,8,13,5,5,15,24,19,14,20,30,29,31,27,33,40,43,41,56,68,75,69,62,57,51,48,50,64,68,71,68,64,52,53,52,57,55,49,53,52,49,45,52,51,36,44,39,49,43,43,43,39,36,36,27,28,28,28,28,28,28,41,44,52,53,49,55,55,59,66,59,50,47,49,59,59,63,62,73,79,79,81,68,59,53,35,24,19,21,20,8,13,12,17,20,24,33,38,41,42,31,20,16,21,17,9,10,8,15,20,17,12,13,16,11,10,13,5,3,13,10,5,0,0,0,0,8,12,8,8,8,5,5,8,13,10,5,0,0,0,0,5,3,12,12,0,0,0,0,0,5,8,13,8,5,10,13,12,12,8,5,5,3,8,15,12,13,14,21,28,29,28,12,18,17,17,18,17,18,8,5,8,13,10,13,12,0,0,0,5,5,8,8,13,12,0,0,8,13,5,0,8,13,13,12,12,12,15,8,12,12,0,0,0,0,0,0,5,13,8,0,0,12,12,8,15,8,5,12,12,5,10,12,10,5,13,8,13,8,10,9,8,8,5,8,12,12,8,5,12,16,13,5,0,0,0,0,5,8,12,13,8,10,12,8,5,12,8,0,0,5,13,10,3,5,8,15,8,5,0,0,0,-1,-1,-1,-1,-1,-1,-1,-1,-1,-1,-1,-1,-1,-1,-1,-1,-1,-1,-1,-1,-1,-1,-1,-1,-1,-1,-1,-1,-1,-1,-1,-1,-1,-1,-1,-1,-1,-1,-1,-1,-1,-1,-1
-1,-1,-1,-1,-1,-1,-1,-1,-1,-1,-1,-1,-1,-1,-1,-1,-1,-1,-1,-1,-1,-1,-1,-1,-1,-1,-1,-1,-1,-1,-1,-1,-1,-1,-1,-1,-1,-1,-1,-1,-1,-1,-1,-1,-1,-1,-1,-1,-1,-1,-1,-1,-1,-1,-1,-1,-1,-1,-1,-1,-1,-1,-1,-1,-1,-1,-1,-1,-1,-1,-1,-1,-1,39,36,33,35,33,49,48,45,38,44,36,12,5,3,5,5,26,28,40,47,47,42,34,41,44,29,10,20,18,12,15,8,0,13,27,36,40,36,35,35,36,43,51,45,51,66,59,51,28,24,16,15,20,37,50,60,54,53,50,50,53,51,50,50,49,53,52,49,45,55,67,66,53,45,49,48,49,48,48,52,48,43,44,43,54,64,60,55,64,65,67,67,60,60,51,57,69,84,78,67,60,42,43,41,38,45,44,33,37,36,33,35,36,34,33,34,24,30,35,24,7,8,13,12,17,17,10,5,5,10,10,5,8,13,5,8,13,5,12,12,0,0,8,15,8,8,15,16,18,10,0,5,10,13,8,5,0,8,12,3,8,17,21,20,21,16,32,31,31,31,37,41,49,50,65,69,77,63,52,57,63,63,61,61,62,57,57,51,43,42,47,45,48,46,46,49,48,49,45,40,40,36,37,37,31,31,31,27,24,20,24,27,27,28,28,27,27,35,21,32,45,46,48,45,40,42,47,43,48,47,63,58,50,46,38,50,53,56,65,58,56,49,43,25,26,25,20,13,26,29,20,13,14,20,34,30,24,29,26,22,13,16,17,15,8,17,20,16,13,13,13,13,16,10,8,10,13,3,0,5,3,8,10,10,8,13,13,3,3,13,10,5,5,3,5,5,8,13,13,16,12,0,0,0,0,0,0,8,13,5,0,5,8,13,13,8,5,3,9,5,8,13,11,18,11,12,8,5,0,5,8,18,17,16,12,12,12,15,10,10,13,8,0,0,0,3,9,3,0,8,13,5,0,5,13,8,0,12,13,8,12,12,12,8,5,12,12,0,0,0,5,3,5,3,12,8,0,0,8,13,8,13,5,0,8,13,10,13,8,13,8,12,12,12,12,3,13,13,3,8,15,12,12,15,8,12,12,10,13,12,12,12,12,13,13,12,8,10,13,5,0,5,13,8,0,0,8,13,5,0,0,5,8,15,8,0,0,0,-1,-1,-1,-1,-1,-1,-1,-1,-1,-1,-1,-1,-1,-1,-1,-1,-1,-1,-1,-1,-1,-1,-1,-1,-1,-1,-1,-1,-1,-1,-1,-1,-1,-1,-1,-1,-1,-1,-1,-1,-1,-1,-1
-1,-1,-1,-1,-1,-1,-1,-1,-1,-1,-1,-1,-1,-1,-1,-1,-1,-1,-1,-1,-1,-1,-1,-1,-1,-1,-1,-1,-1,-1,-1,-1,-1,-1,-1,-1,-1,-1,-1,-1,-1,-1,-1,-1,-1,-1,-1,-1,-1,-1,-1,-1,-1,-1,-1,-1,-1,-1,-1,-1,-1,-1,-1,-1,-1,-1,-1,-1,-1,-1,-1,-1,-1,45,41,37,33,43,40,43,48,45,48,45,17,0,0,0,0,13,21,32,44,46,43,33,20,20,32,29,29,24,15,8,5,8,16,26,43,56,51,38,36,35,38,46,43,42,48,54,53,48,37,20,16,18,30,38,51,50,59,58,52,50,52,47,48,52,57,55,49,49,52,69,71,54,49,48,49,45,47,52,52,48,43,43,43,57,59,53,51,55,63,74,69,61,51,51,71,78,86,81,66,53,37,43,44,43,38,41,43,33,43,41,36,37,28,34,33,28,35,29,18,13,11,8,8,5,5,13,8,0,5,10,10,5,13,8,5,13,8,12,13,8,8,8,13,5,5,10,5,8,0,5,10,10,5,0,5,8,13,10,5,18,22,13,21,24,21,31,32,32,40,39,49,60,61,74,74,58,52,54,60,60,64,63,48,42,47,40,43,42,51,50,48,38,31,36,42,54,53,47,48,48,43,44,37,31,31,28,24,20,25,22,29,28,28,28,28,26,27,26,27,36,38,43,45,48,47,52,57,52,50,53,58,60,62,48,38,45,45,46,52,54,59,49,36,31,26,25,19,24,23,24,17,16,23,15,17,14,20,29,24,13,13,18,16,18,20,33,28,20,12,8,17,24,21,17,13,10,5,0,3,9,5,13,5,5,8,8,5,5,10,13,12,13,12,13,13,13,12,10,16,18,8,12,12,12,8,5,8,15,12,12,8,5,5,8,13,10,5,8,8,12,8,11,14,18,5,0,0,0,0,0,5,8,12,16,12,12,8,5,5,3,5,0,5,3,5,3,5,0,5,10,10,5,5,13,8,0,12,12,0,0,5,8,12,8,13,12,0,0,0,8,13,10,5,13,8,0,5,5,13,8,10,10,5,5,13,4,13,5,12,12,8,13,8,13,5,8,8,5,12,12,0,0,12,12,8,15,12,16,16,12,12,12,8,5,0,0,5,13,8,0,0,12,12,0,5,13,8,0,0,0,0,0,8,13,5,0,0,-1,-1,-1,-1,-1,-1,-1,-1,-1,-1,-1,-1,-1,-1,-1,-1,-1,-1,-1,-1,-1,-1,-1,-1,-1,-1,-1,-1,-1,-1,-1,-1,-1,-1,-1,-1,-1,-1,-1,-1,-1,-1,-1
-1,-1,-1,-1,-1,-1,-1,-1,-1,-1,-1,-1,-1,-1,-1,-1,-1,-1,-1,-1,-1,-1,-1,-1,-1,-1,-1,-1,-1,-1,-1,-1,-1,-1,-1,-1,-1,-1,-1,-1,-1,-1,-1,-1,-1,-1,-1,-1,-1,-1,-1,-1,-1,-1,-1,-1,-1,-1,-1,-1,-1,-1,-1,-1,-1,-1,-1,-1,-1,-1,-1,-1,-1,45,45,33,40,43,49,48,45,49,49,45,25,0,5,3,5,5,13,36,43,38,42,39,31,30,34,19,18,24,18,3,15,17,24,32,48,52,49,51,50,40,40,45,47,45,57,55,52,56,51,37,27,20,16,7,22,33,54,60,57,62,64,63,59,57,63,67,58,54,52,53,53,52,49,49,45,45,39,49,39,40,45,40,39,48,48,46,39,39,43,41,36,40,43,52,69,78,67,51,45,36,33,41,43,40,38,45,43,38,43,43,40,30,30,37,36,36,34,20,5,8,12,8,8,8,5,12,12,0,0,5,10,10,8,13,5,12,12,8,13,13,13,11,11,10,10,15,13,13,8,10,13,5,5,8,13,13,12,17,26,27,24,22,17,27,36,38,30,40,52,55,68,76,74,72,72,61,56,54,48,45,44,43,35,43,43,42,50,45,55,57,49,32,41,41,50,48,52,45,37,43,52,20,28,25,25,22,22,20,20,13,17,9,9,14,20,23,16,23,37,34,27,42,40,41,44,49,54,48,45,58,55,62,63,62,64,63,54,50,49,44,54,56,52,42,27,22,17,12,13,21,26,22,25,13,13,14,19,26,32,13,5,5,18,13,20,37,31,19,8,14,20,17,17,22,18,5,3,5,5,3,10,13,8,3,5,0,0,0,5,7,16,16,11,16,16,13,13,8,21,23,17,15,16,12,13,13,8,8,12,16,13,13,12,8,5,10,13,13,13,12,15,8,18,14,10,5,0,0,0,5,8,12,13,13,8,5,3,8,8,12,8,5,8,13,10,5,0,0,0,5,13,8,8,13,8,12,15,8,8,12,13,13,12,13,13,8,0,0,0,8,13,10,10,8,13,3,10,12,13,8,5,10,10,5,12,13,13,8,8,13,5,10,11,11,13,12,12,12,15,8,0,0,8,15,12,16,16,12,13,13,12,12,12,8,5,0,0,8,15,12,8,13,12,0,3,12,8,0,0,0,0,0,5,13,8,0,0,-1,-1,-1,-1,-1,-1,-1,-1,-1,-1,-1,-1,-1,-1,-1,-1,-1,-1,-1,-1,-1,-1,-1,-1,-1,-1,-1,-1,-1,-1,-1,-1,-1,-1,-1,-1,-1,-1,-1,-1,-1,-1,-1
-1,-1,-1,-1,-1,-1,-1,-1,-1,-1,-1,-1,-1,-1,-1,-1,-1,-1,-1,-1,-1,-1,-1,-1,-1,-1,-1,-1,-1,-1,-1,-1,-1,-1,-1,-1,-1,-1,-1,-1,-1,-1,-1,-1,-1,-1,-1,-1,-1,-1,-1,-1,-1,-1,-1,-1,-1,-1,-1,-1,-1,-1,-1,-1,-1,-1,-1,-1,-1,-1,-1,-1,-1,-1,51,38,40,41,54,61,57,48,52,47,33,0,3,9,3,0,5,17,29,27,39,43,46,45,32,8,13,13,18,16,17,26,25,24,37,41,47,55,56,52,43,44,44,52,56,52,52,56,54,41,33,29,24,15,20,24,33,38,50,65,66,64,66,60,69,59,63,63,60,53,57,52,47,45,49,49,44,36,44,44,45,45,43,43,43,43,40,40,33,33,36,37,35,43,54,55,38,32,30,25,27,38,40,38,41,43,41,40,36,37,27,30,37,30,35,31,27,8,8,8,13,15,22,17,5,8,13,5,0,0,8,12,12,12,3,12,12,5,3,5,8,11,11,11,13,8,5,7,17,17,8,10,18,16,12,11,13,17,24,28,16,23,20,39,42,40,38,49,67,74,74,77,77,74,61,56,56,53,47,47,50,42,40,47,42,47,42,38,42,43,32,28,27,41,42,26,13,15,8,7,22,21,13,15,4,13,8,8,15,8,11,15,15,16,21,15,14,27,26,13,8,13,19,22,22,24,24,29,29,51,52,58,65,69,68,61,61,67,68,54,52,60,64,52,38,34,22,21,17,10,18,22,21,13,13,18,21,27,24,23,13,5,8,10,12,19,23,21,17,10,16,12,8,10,14,7,9,3,0,0,5,10,12,12,10,3,3,3,8,13,13,12,12,12,12,8,13,12,13,17,18,12,13,13,12,12,13,13,13,12,11,8,12,13,10,5,8,8,5,3,12,12,13,7,13,8,0,0,0,8,15,12,8,13,13,10,13,8,15,12,13,13,15,10,10,13,8,5,0,5,13,8,12,16,15,12,8,8,15,12,8,5,0,5,3,5,0,0,0,8,12,4,12,8,13,11,13,8,3,5,0,5,13,8,12,12,8,15,8,10,10,5,13,8,8,12,12,12,8,5,0,0,5,8,12,12,15,8,5,8,12,12,12,15,8,0,0,5,8,12,13,13,8,0,5,10,13,12,12,12,12,12,12,15,8,8,8,5,-1,-1,-1,-1,-1,-1,-1,-1,-1,-1,-1,-1,-1,-1,-1,-1,-1,-1,-1,-1,-1,-1,-1,-1,-1,-1,-1,-1,-1,-1,-1,-1,-1,-1,-1,-1,-1,-1,-1,-1,-1,-1
-1,-1,-1,-1,-1,-1,-1,-1,-1,-1,-1,-1,-1,-1,-1,-1,-1,-1,-1,-1,-1,-1,-1,-1,-1,-1,-1,-1,-1,-1,-1,-1,-1,-1,-1,-1,-1,-1,-1,-1,-1,-1,-1,-1,-1,-1,-1,-1,-1,-1,-1,-1,-1,-1,-1,-1,-1,-1,-1,-1,-1,-1,-1,-1,-1,-1,-1,-1,-1,-1,-1,-1,-1,-1,-1,43,43,43,57,76,69,47,47,51,38,12,8,8,5,5,10,10,13,23,24,39,43,41,33,32,42,14,18,24,23,29,20,12,23,34,53,58,56,54,44,44,49,52,52,56,52,52,52,50,43,33,34,20,18,16,20,28,42,51,50,62,55,50,53,52,55,55,54,55,57,52,60,57,48,53,53,53,47,47,47,45,49,51,54,62,53,40,31,33,31,40,44,39,37,30,21,16,8,20,42,45,41,43,41,40,36,35,32,27,30,37,30,32,32,25,19,17,13,13,16,20,20,20,8,5,10,10,5,5,10,11,11,10,5,8,13,5,0,8,13,8,10,11,8,5,0,3,14,5,5,13,23,13,8,11,11,11,23,14,25,23,17,35,40,36,39,60,74,77,71,63,65,64,55,58,50,42,50,50,64,67,77,67,59,43,39,31,30,30,31,17,13,27,28,12,12,12,0,5,13,20,17,19,23,15,8,5,18,14,13,12,13,5,8,3,13,17,14,10,5,5,18,22,22,22,26,22,25,31,47,52,59,68,58,56,60,74,73,65,55,63,65,56,50,45,26,24,28,28,21,32,22,17,3,13,13,22,21,22,22,25,20,18,9,17,33,25,11,8,8,18,3,7,16,8,5,5,0,5,8,12,16,11,16,17,9,12,15,8,5,0,5,3,5,0,8,13,5,3,5,0,5,8,12,13,11,8,8,8,13,8,0,5,13,8,0,5,10,13,12,17,17,8,12,12,3,5,0,12,13,3,5,12,8,13,14,8,13,5,5,8,8,5,5,8,13,10,5,8,13,5,12,16,13,5,0,12,12,0,0,0,0,0,0,0,0,0,5,10,10,8,13,5,12,15,12,0,0,0,0,0,8,13,12,12,5,8,15,9,12,3,12,12,0,0,0,0,0,0,0,0,0,0,5,8,15,8,0,0,0,5,8,10,10,12,12,12,12,8,5,3,5,0,0,5,8,12,12,12,12,12,12,8,11,13,13,10,-1,-1,-1,-1,-1,-1,-1,-1,-1,-1,-1,-1,-1,-1,-1,-1,-1,-1,-1,-1,-1,-1,-1,-1,-1,-1,-1,-1,-1,-1,-1,-1,-1,-1,-1,-1,-1,-1,-1,-1,-1,-1
-1,-1,-1,-1,-1,-1,-1,-1,-1,-1,-1,-1,-1,-1,-1,-1,-1,-1,-1,-1,-1,-1,-1,-1,-1,-1,-1,-1,-1,-1,-1,-1,-1,-1,-1,-1,-1,-1,-1,-1,-1,-1,-1,-1,-1,-1,-1,-1,-1,-1,-1,-1,-1,-1,-1,-1,-1,-1,-1,-1,-1,-1,-1,-1,-1,-1,-1,-1,-1,-1,-1,-1,-1,-1,-1,41,38,43,60,79,81,57,49,60,44,24,17,15,5,3,13,18,20,22,15,20,29,33,35,49,43,17,21,28,32,28,12,8,8,18,39,51,57,45,43,43,55,45,52,56,52,55,49,49,53,40,32,27,29,18,12,12,21,25,31,40,47,42,40,43,48,48,46,46,47,52,55,54,49,48,59,53,47,47,47,49,40,48,63,61,61,47,43,44,40,39,39,40,39,33,26,30,29,42,45,52,49,46,43,38,40,33,38,48,40,39,40,36,33,27,19,17,8,8,12,15,8,5,10,10,5,10,13,13,11,11,10,5,0,5,10,10,5,8,13,8,8,12,5,8,12,13,8,13,13,8,5,10,8,8,12,12,20,29,10,20,19,32,35,40,55,75,82,71,63,63,60,52,55,54,40,43,47,56,66,76,75,78,55,44,32,34,22,19,17,0,12,28,28,12,12,13,8,12,15,20,18,30,19,8,8,10,17,18,5,0,3,9,3,8,13,3,3,5,0,5,13,11,18,27,29,29,26,22,32,41,46,51,52,52,49,49,61,57,54,64,55,52,60,59,42,20,20,24,34,37,33,33,24,24,24,19,14,18,17,24,29,24,21,17,29,22,10,13,20,24,23,17,13,15,8,0,0,3,13,13,16,12,23,23,16,15,8,3,5,0,8,13,8,0,5,13,8,0,0,0,0,5,8,13,13,3,0,0,12,12,0,5,13,8,0,3,13,14,7,18,17,8,12,16,13,8,0,8,13,13,8,12,13,8,8,8,10,8,5,12,12,12,12,8,5,10,10,8,13,5,12,12,13,8,0,8,13,5,0,0,0,0,0,5,8,12,13,10,5,8,15,8,12,15,12,0,0,0,0,0,5,13,12,13,5,5,8,8,10,5,12,13,8,8,5,0,0,0,0,0,0,5,10,13,8,5,0,0,0,3,13,9,8,12,12,12,12,13,13,8,5,0,0,0,0,0,0,0,0,5,8,8,8,10,4,10,-1,-1,-1,-1,-1,-1,-1,-1,-1,-1,-1,-1,-1,-1,-1,-1,-1,-1,-1,-1,-1,-1,-1,-1,-1,-1,-1,-1,-1,-1,-1,-1,-1,-1,-1,-1,-1,-1,-1,-1,-1,-1
-1,-1,-1,-1,-1,-1,-1,-1,-1,-1,-1,-1,-1,-1,-1,-1,-1,-1,-1,-1,-1,-1,-1,-1,-1,-1,-1,-1,-1,-1,-1,-1,-1,-1,-1,-1,-1,-1,-1,-1,-1,-1,-1,-1,-1,-1,-1,-1,-1,-1,-1,-1,-1,-1,-1,-1,-1,-1,-1,-1,-1,-1,-1,-1,-1,-1,-1,-1,-1,-1,-1,-1,-1,-1,-1,-1,36,43,65,88,92,65,48,50,38,28,26,32,23,10,8,11,21,17,15,20,24,33,36,45,39,32,26,19,19,35,26,17,17,21,29,31,42,48,38,37,45,42,40,50,51,54,55,52,58,54,45,33,34,26,5,3,14,15,26,32,40,38,38,38,40,43,46,46,46,48,48,46,45,39,45,49,43,43,47,51,43,35,40,52,49,47,43,43,35,35,40,39,40,38,37,41,42,50,48,47,52,39,40,33,40,38,42,49,49,33,38,40,32,26,13,10,15,12,8,8,15,8,5,13,8,5,8,8,8,13,5,0,0,0,5,10,10,9,0,8,3,13,13,13,12,12,12,12,8,5,8,15,8,8,17,21,25,8,20,25,26,31,40,50,64,71,72,56,58,58,65,52,57,45,36,52,57,57,54,57,58,50,40,36,32,24,25,8,10,8,12,24,29,20,13,25,16,15,16,18,21,26,21,18,16,21,12,10,12,12,8,5,5,8,15,12,12,12,12,13,10,5,16,24,34,26,26,29,21,16,26,40,41,49,52,51,52,62,49,52,59,52,60,61,59,36,30,25,20,30,48,46,35,33,30,27,11,13,16,15,22,22,22,25,32,21,9,12,19,31,25,17,8,12,12,0,0,5,13,12,9,8,17,12,9,9,13,12,13,8,8,13,8,0,0,8,15,8,8,3,5,8,15,12,8,5,0,0,12,12,0,8,13,5,0,5,8,8,5,13,16,12,12,16,13,8,0,8,5,9,10,15,8,3,5,0,8,20,18,12,12,12,12,13,10,5,10,11,13,8,12,12,12,12,0,5,13,8,0,5,8,8,5,3,13,13,8,5,3,8,8,13,16,16,13,5,0,0,0,0,0,8,13,11,13,13,8,8,5,5,13,5,13,13,3,0,0,0,0,0,0,3,13,10,5,0,0,0,0,5,8,8,5,0,0,0,0,5,8,13,10,5,0,0,0,0,0,0,5,10,13,8,8,13,10,4,8,-1,-1,-1,-1,-1,-1,-1,-1,-1,-1,-1,-1,-1,-1,-1,-1,-1,-1,-1,-1,-1,-1,-1,-1,-1,-1,-1,-1,-1,-1,-1,-1,-1,-1,-1,-1,-1,-1,-1,-1,-1
-1,-1,-1,-1,-1,-1,-1,-1,-1,-1,-1,-1,-1,-1,-1,-1,-1,-1,-1,-1,-1,-1,-1,-1,-1,-1,-1,-1,-1,-1,-1,-1,-1,-1,-1,-1,-1,-1,-1,-1,-1,-1,-1,-1,-1,-1,-1,-1,-1,-1,-1,-1,-1,-1,-1,-1,-1,-1,-1,-1,-1,-1,-1,-1,-1,-1,-1,-1,-1,-1,-1,-1,-1,-1,-1,-1,40,43,65,90,96,74,57,47,47,19,30,32,32,23,8,13,10,7,16,15,15,20,32,42,51,44,45,17,18,34,30,22,22,21,17,20,32,47,53,51,41,38,35,40,53,54,47,52,50,57,51,39,41,34,20,5,3,5,10,17,23,27,33,44,36,38,42,46,46,47,50,50,45,39,45,42,40,40,44,49,33,24,29,42,42,39,43,43,44,44,40,36,37,33,37,60,64,65,66,57,40,36,45,42,50,42,38,37,29,27,30,26,16,8,8,5,8,12,13,11,8,13,10,12,12,0,0,0,12,12,0,0,0,0,0,5,10,12,12,13,12,12,7,5,0,0,5,3,8,10,13,8,5,15,16,19,24,18,19,24,31,39,45,54,66,69,65,57,53,57,58,47,48,35,43,49,52,52,49,41,37,20,11,16,15,16,11,11,13,15,12,17,22,16,17,16,17,12,12,5,12,18,13,28,21,16,13,10,12,12,13,13,12,13,4,13,12,16,15,11,8,18,16,16,18,19,27,37,27,13,15,29,37,41,52,57,62,58,57,52,52,49,51,60,63,57,54,44,35,38,43,42,36,39,39,37,16,12,16,19,24,22,22,27,29,27,18,10,16,23,17,11,13,8,15,8,5,5,13,8,12,18,19,22,16,12,8,12,8,15,8,3,5,3,5,5,8,13,8,9,8,13,8,0,0,0,0,5,13,8,8,15,8,5,8,12,12,12,13,11,13,8,12,12,3,5,0,8,14,8,8,8,5,9,8,12,13,17,17,0,5,8,12,8,13,8,5,13,12,13,12,12,8,13,5,0,8,15,12,13,13,13,10,5,10,10,5,3,9,12,15,8,12,12,13,8,5,8,8,5,0,8,12,8,8,8,13,12,5,10,10,8,8,8,5,0,5,8,8,5,0,5,8,13,10,5,0,0,0,5,3,5,0,5,8,8,5,0,0,5,10,13,12,12,12,12,12,12,13,10,5,5,13,8,10,10,5,-1,-1,-1,-1,-1,-1,-1,-1,-1,-1,-1,-1,-1,-1,-1,-1,-1,-1,-1,-1,-1,-1,-1,-1,-1,-1,-1,-1,-1,-1,-1,-1,-1,-1,-1,-1,-1,-1,-1,-1,-1
-1,-1,-1,-1,-1,-1,-1,-1,-1,-1,-1,-1,-1,-1,-1,-1,-1,-1,-1,-1,-1,-1,-1,-1,-1,-1,-1,-1,-1,-1,-1,-1,-1,-1,-1,-1,-1,-1,-1,-1,-1,-1,-1,-1,-1,-1,-1,-1,-1,-1,-1,-1,-1,-1,-1,-1,-1,-1,-1,-1,-1,-1,-1,-1,-1,-1,-1,-1,-1,-1,-1,-1,-1,-1,-1,-1,-1,43,60,82,94,83,70,55,51,22,18,21,32,32,17,10,5,10,13,16,15,15,27,45,53,57,50,21,13,23,30,24,8,17,13,20,24,48,56,54,48,35,35,35,46,47,45,47,44,55,45,47,43,35,27,13,10,23,24,20,8,12,25,27,34,44,48,49,49,49,49,52,51,40,38,38,44,40,31,27,17,10,20,28,37,36,35,40,39,39,35,31,38,43,52,57,71,75,63,56,44,43,54,57,43,40,36,28,24,21,19,18,8,13,13,3,0,0,8,12,3,5,13,12,13,5,0,0,12,12,0,0,0,5,8,12,12,16,11,16,16,13,13,12,8,5,13,17,20,8,5,5,15,21,19,26,18,8,17,22,36,45,45,62,69,66,57,52,47,55,57,45,36,41,47,47,55,57,49,38,21,10,3,9,9,13,13,25,16,17,17,28,35,13,5,0,0,0,5,15,17,11,25,25,10,8,14,8,0,0,5,8,12,12,13,10,7,14,8,14,20,28,17,13,11,11,11,27,29,26,5,20,29,40,46,50,55,57,52,59,52,46,49,58,62,59,61,51,48,38,35,35,29,39,46,43,26,21,19,25,29,30,20,20,14,29,24,14,9,13,18,3,13,9,8,9,8,13,10,8,14,13,29,29,22,15,10,13,7,18,10,8,10,13,8,0,0,8,8,5,8,13,5,0,0,0,5,10,11,11,13,8,5,10,13,12,12,12,8,8,13,5,13,8,0,0,0,8,13,10,5,0,5,8,10,12,8,13,8,0,3,13,9,13,16,12,5,13,12,12,12,13,5,10,10,5,5,8,12,8,5,8,12,3,5,10,10,8,12,15,8,0,12,12,12,12,8,15,13,10,5,8,13,5,5,8,15,8,10,10,5,3,5,0,5,8,13,13,13,3,0,0,0,5,10,13,12,12,12,13,12,13,12,13,13,13,13,12,12,8,5,8,12,12,12,12,12,12,8,5,0,0,8,13,4,13,8,-1,-1,-1,-1,-1,-1,-1,-1,-1,-1,-1,-1,-1,-1,-1,-1,-1,-1,-1,-1,-1,-1,-1,-1,-1,-1,-1,-1,-1,-1,-1,-1,-1,-1,-1,-1,-1,-1,-1,-1,-1
-1,-1,-1,-1,-1,-1,-1,-1,-1,-1,-1,-1,-1,-1,-1,-1,-1,-1,-1,-1,-1,-1,-1,-1,-1,-1,-1,-1,-1,-1,-1,-1,-1,-1,-1,-1,-1,-1,-1,-1,-1,-1,-1,-1,-1,-1,-1,-1,-1,-1,-1,-1,-1,-1,-1,-1,-1,-1,-1,-1,-1,-1,-1,-1,-1,-1,-1,-1,-1,-1,-1,-1,-1,-1,-1,-1,-1,-1,42,73,88,89,81,63,62,45,24,19,34,24,10,5,8,13,8,15,12,12,18,32,61,66,64,43,13,10,29,32,20,8,20,11,20,35,53,60,57,40,35,35,46,46,40,42,50,50,45,41,34,36,36,33,36,38,40,38,25,10,17,17,28,36,49,46,45,49,49,55,64,54,51,49,43,35,33,30,30,21,34,41,37,40,35,35,31,31,31,31,43,50,54,56,56,57,57,51,43,46,49,49,34,31,32,30,22,19,15,8,5,8,8,5,0,0,3,12,8,0,12,12,10,10,5,0,12,12,0,0,0,8,15,12,12,12,12,12,13,13,12,12,13,13,23,25,18,5,0,8,17,22,23,21,13,15,25,36,51,47,57,74,73,64,56,50,53,65,58,38,53,57,57,55,57,45,27,25,8,13,7,14,13,5,15,14,14,31,26,24,29,22,8,0,0,0,3,16,23,15,24,23,13,16,11,3,0,0,0,0,0,0,5,13,13,21,16,17,24,26,12,13,13,8,10,19,31,31,13,5,15,24,38,53,52,55,55,55,54,44,50,54,57,57,50,44,47,38,33,34,27,27,36,44,37,29,17,8,23,30,28,27,13,17,21,25,19,16,12,0,8,13,13,10,10,8,4,8,8,23,41,35,29,12,13,20,19,16,17,8,8,14,8,5,3,10,13,5,8,13,5,0,0,0,8,13,8,13,5,0,8,13,5,5,8,12,12,10,8,7,13,5,0,0,0,5,3,5,0,0,0,12,12,5,10,10,5,8,8,8,12,8,7,13,7,13,8,13,3,13,8,5,10,13,8,5,0,0,0,3,12,8,0,5,10,12,13,8,5,5,13,8,13,8,8,13,4,13,8,12,12,0,8,15,8,8,13,5,5,8,8,12,13,13,8,10,10,4,3,5,0,0,5,8,12,12,12,8,12,12,12,8,5,7,16,16,12,13,10,5,0,0,0,0,0,0,0,0,5,3,5,10,13,15,8,-1,-1,-1,-1,-1,-1,-1,-1,-1,-1,-1,-1,-1,-1,-1,-1,-1,-1,-1,-1,-1,-1,-1,-1,-1,-1,-1,-1,-1,-1,-1,-1,-1,-1,-1,-1,-1,-1,-1,-1,-1
-1,-1,-1,-1,-1,-1,-1,-1,-1,-1,-1,-1,-1,-1,-1,-1,-1,-1,-1,-1,-1,-1,-1,-1,-1,-1,-1,-1,-1,-1,-1,-1,-1,-1,-1,-1,-1,-1,-1,-1,-1,-1,-1,-1,-1,-1,-1,-1,-1,-1,-1,-1,-1,-1,-1,-1,-1,-1,-1,-1,-1,-1,-1,-1,-1,-1,-1,-1,-1,-1,-1,-1,-1,-1,-1,-1,-1,-1,28,53,79,86,82,69,63,51,35,27,28,29,18,5,12,12,12,12,5,8,12,21,47,64,68,57,21,14,21,32,32,23,20,16,23,21,37,52,59,50,40,38,45,42,35,35,46,49,50,46,39,31,33,29,41,46,46,55,57,21,10,11,15,16,29,31,32,45,46,50,58,64,59,56,48,37,37,36,37,51,72,50,44,48,43,44,48,47,44,35,44,46,49,54,49,43,47,41,31,34,37,39,29,19,21,18,10,18,10,5,0,0,0,0,0,0,5,13,8,0,12,12,5,10,10,5,8,13,5,0,0,12,12,0,0,0,0,5,7,12,15,8,5,8,8,18,15,8,0,17,16,20,20,19,17,20,39,42,45,55,59,76,74,59,55,52,56,62,60,46,55,65,60,63,49,37,8,8,5,8,21,11,8,10,14,14,13,23,21,11,16,17,11,12,8,5,5,18,26,18,20,12,7,18,13,13,5,5,12,12,8,5,5,8,12,20,26,15,16,15,16,19,20,7,4,18,34,28,25,20,20,17,29,38,51,52,55,58,64,55,47,52,57,54,50,36,30,35,30,27,29,27,42,44,48,32,20,18,12,32,39,28,16,7,13,23,27,25,20,12,12,12,5,13,8,5,10,8,8,20,38,32,19,15,8,11,21,17,13,10,8,8,5,8,13,9,12,0,5,13,8,0,5,8,15,8,12,12,0,5,13,8,5,10,13,12,12,8,9,12,13,5,0,0,0,0,0,0,0,0,5,13,8,10,10,5,8,15,15,8,0,0,5,13,16,12,12,12,5,13,8,3,4,8,15,8,0,0,0,5,10,10,5,0,5,3,5,0,0,3,12,12,12,8,5,10,13,15,8,13,8,5,13,8,8,15,8,10,8,4,10,12,8,4,10,10,5,3,9,3,0,0,0,0,0,0,5,10,13,13,13,12,13,13,12,13,13,8,13,8,0,5,8,12,12,8,5,0,3,9,3,5,8,8,5,-1,-1,-1,-1,-1,-1,-1,-1,-1,-1,-1,-1,-1,-1,-1,-1,-1,-1,-1,-1,-1,-1,-1,-1,-1,-1,-1,-1,-1,-1,-1,-1,-1,-1,-1,-1,-1,-1,-1,-1,-1
-1,-1,-1,-1,-1,-1,-1,-1,-1,-1,-1,-1,-1,-1,-1,-1,-1,-1,-1,-1,-1,-1,-1,-1,-1,-1,-1,-1,-1,-1,-1,-1,-1,-1,-1,-1,-1,-1,-1,-1,-1,-1,-1,-1,-1,-1,-1,-1,-1,-1,-1,-1,-1,-1,-1,-1,-1,-1,-1,-1,-1,-1,-1,-1,-1,-1,-1,-1,-1,-1,-1,-1,-1,-1,-1,-1,-1,-1,22,39,60,67,77,72,65,55,49,39,41,27,17,8,12,12,12,12,10,13,16,26,36,49,67,71,41,16,8,20,32,32,25,24,21,13,16,49,56,54,48,42,45,38,35,35,46,50,48,45,43,33,32,24,32,40,30,55,53,32,16,15,12,8,8,13,20,30,31,32,44,57,59,56,55,50,38,45,54,73,76,70,46,35,40,39,47,60,48,48,56,54,44,35,30,32,25,16,20,22,24,17,12,17,18,5,5,10,10,5,0,0,0,0,5,3,5,17,13,5,12,12,0,5,13,8,5,10,13,12,12,15,8,0,5,8,12,13,13,15,16,12,0,0,8,5,10,5,5,21,22,22,26,24,22,20,35,40,46,47,78,78,61,58,58,47,54,56,55,62,65,63,63,62,38,21,8,3,9,12,13,8,8,13,12,9,18,23,16,17,15,17,18,16,17,18,12,16,26,22,13,16,20,21,4,8,18,21,13,12,15,10,10,8,12,20,23,25,23,8,21,25,19,17,18,20,29,24,17,25,25,19,19,32,48,57,55,58,63,62,49,55,57,57,59,54,45,33,42,33,39,22,30,36,33,31,24,22,16,35,48,36,21,5,5,8,17,24,19,11,16,17,18,17,8,3,12,13,12,5,26,26,16,7,5,8,15,16,15,16,12,8,13,20,12,14,10,8,5,12,12,5,10,13,12,12,15,8,5,10,11,8,13,11,8,5,0,5,3,3,10,13,12,12,12,12,8,5,0,0,8,13,8,12,8,0,8,13,13,12,0,5,8,20,17,8,13,8,8,13,8,9,3,0,8,15,12,8,5,0,5,10,10,5,0,0,0,0,0,5,13,8,10,10,5,5,8,8,11,11,8,13,10,8,15,8,8,13,13,9,13,5,0,8,13,5,3,5,3,5,0,0,0,0,0,0,8,13,5,8,8,12,8,5,3,5,8,13,14,20,12,13,13,12,12,13,10,3,7,12,3,0,5,8,12,13,-1,-1,-1,-1,-1,-1,-1,-1,-1,-1,-1,-1,-1,-1,-1,-1,-1,-1,-1,-1,-1,-1,-1,-1,-1,-1,-1,-1,-1,-1,-1,-1,-1,-1,-1,-1,-1,-1,-1,-1
-1,-1,-1,-1,-1,-1,-1,-1,-1,-1,-1,-1,-1,-1,-1,-1,-1,-1,-1,-1,-1,-1,-1,-1,-1,-1,-1,-1,-1,-1,-1,-1,-1,-1,-1,-1,-1,-1,-1,-1,-1,-1,-1,-1,-1,-1,-1,-1,-1,-1,-1,-1,-1,-1,-1,-1,-1,-1,-1,-1,-1,-1,-1,-1,-1,-1,-1,-1,-1,-1,-1,-1,-1,-1,-1,-1,-1,-1,-1,36,45,51,67,66,56,54,49,47,42,31,29,17,8,12,17,14,10,8,13,28,31,32,48,59,45,31,18,5,21,31,28,13,13,26,24,47,59,64,55,43,48,38,33,34,46,47,45,45,42,35,43,37,24,33,20,35,50,40,24,15,8,5,0,0,5,5,13,20,32,47,45,49,53,54,67,96,97,87,63,42,36,31,35,40,40,52,49,56,62,54,44,26,26,17,8,15,17,25,19,16,13,16,12,0,0,8,12,3,5,8,8,5,3,9,8,29,21,18,15,8,0,0,12,12,0,5,8,12,12,8,8,12,13,13,12,8,5,12,16,15,8,8,10,12,10,8,15,24,19,29,32,24,18,16,26,33,45,55,83,87,60,55,54,52,57,67,64,60,65,63,61,41,13,13,12,5,3,5,12,7,13,12,13,10,13,23,27,23,16,16,8,9,21,12,9,15,27,21,25,13,13,13,17,13,13,21,21,13,13,9,13,13,15,12,13,17,21,28,24,17,19,21,8,19,19,12,12,12,12,19,19,18,24,43,57,60,61,62,54,52,53,52,65,63,59,42,47,42,46,33,27,32,38,36,38,30,19,36,48,46,30,13,8,9,15,22,17,13,18,22,22,21,18,13,8,10,8,5,17,8,13,13,3,5,8,12,12,12,12,13,18,26,23,12,9,13,8,13,8,8,13,11,13,12,12,12,13,11,11,13,12,13,13,8,0,0,0,0,5,8,12,12,12,12,13,13,8,8,13,8,5,13,8,0,5,10,13,8,5,10,13,14,16,11,10,5,13,8,5,3,5,0,3,12,12,15,10,8,12,8,11,13,12,12,8,5,0,0,12,12,8,12,3,5,8,13,11,11,13,8,5,12,12,0,12,12,8,13,13,10,8,15,8,3,9,3,0,0,0,0,0,0,0,5,13,8,8,13,13,12,12,13,12,13,12,8,16,14,12,8,5,8,8,5,13,12,13,13,3,5,10,13,12,8,-1,-1,-1,-1,-1,-1,-1,-1,-1,-1,-1,-1,-1,-1,-1,-1,-1,-1,-1,-1,-1,-1,-1,-1,-1,-1,-1,-1,-1,-1,-1,-1,-1,-1,-1,-1,-1,-1,-1,-1
-1,-1,-1,-1,-1,-1,-1,-1,-1,-1,-1,-1,-1,-1,-1,-1,-1,-1,-1,-1,-1,-1,-1,-1,-1,-1,-1,-1,-1,-1,-1,-1,-1,-1,-1,-1,-1,-1,-1,-1,-1,-1,-1,-1,-1,-1,-1,-1,-1,-1,-1,-1,-1,-1,-1,-1,-1,-1,-1,-1,-1,-1,-1,-1,-1,-1,-1,-1,-1,-1,-1,-1,-1,-1,-1,-1,-1,-1,-1,37,46,52,70,68,58,47,50,48,43,35,34,26,4,17,24,21,5,8,13,24,28,29,33,36,49,44,45,43,21,33,28,20,25,29,32,40,60,62,60,40,45,47,46,33,41,43,40,48,43,32,39,38,18,22,28,26,54,57,31,12,13,13,12,12,13,13,8,8,15,24,33,38,40,47,65,80,90,69,45,30,29,31,40,40,32,37,44,47,49,46,28,24,26,17,18,21,24,21,13,8,12,12,13,5,5,10,10,5,13,19,20,20,4,3,12,29,24,13,12,8,8,5,12,12,0,0,0,0,0,8,15,16,7,5,0,0,0,8,13,8,13,12,10,8,13,17,14,22,22,30,30,26,8,26,26,42,54,72,77,69,54,51,54,58,57,64,67,54,53,47,43,16,12,13,17,0,0,8,15,13,13,12,13,8,12,15,16,16,12,12,8,8,13,20,13,13,21,15,14,13,8,5,21,18,8,13,21,19,17,8,13,13,16,13,4,3,4,25,24,13,13,15,20,24,17,8,13,12,12,18,16,18,17,32,55,55,54,56,59,57,57,52,55,63,55,42,47,42,49,41,30,25,29,46,35,29,30,40,41,30,26,14,20,24,14,22,22,17,21,17,18,21,22,16,10,8,4,10,11,8,13,11,8,5,0,0,5,3,5,5,8,18,15,16,9,13,8,13,5,13,12,13,8,13,13,16,16,13,11,11,13,8,10,13,5,0,0,0,0,0,0,0,0,0,5,8,13,12,10,5,0,12,12,0,0,5,3,5,8,13,8,13,11,10,5,15,14,12,8,5,0,0,3,9,3,12,9,15,12,17,18,12,12,12,13,13,12,12,15,8,10,10,5,10,13,8,11,10,5,0,0,12,12,0,8,13,4,10,8,8,13,8,5,5,3,5,5,8,8,5,5,8,12,13,10,5,13,10,8,12,12,8,8,8,12,13,11,11,13,8,5,13,13,3,12,12,8,8,8,13,11,8,8,5,-1,-1,-1,-1,-1,-1,-1,-1,-1,-1,-1,-1,-1,-1,-1,-1,-1,-1,-1,-1,-1,-1,-1,-1,-1,-1,-1,-1,-1,-1,-1,-1,-1,-1,-1,-1,-1,-1,-1,-1
-1,-1,-1,-1,-1,-1,-1,-1,-1,-1,-1,-1,-1,-1,-1,-1,-1,-1,-1,-1,-1,-1,-1,-1,-1,-1,-1,-1,-1,-1,-1,-1,-1,-1,-1,-1,-1,-1,-1,-1,-1,-1,-1,-1,-1,-1,-1,-1,-1,-1,-1,-1,-1,-1,-1,-1,-1,0,0,0,-1,-1,-1,-1,-1,-1,-1,-1,-1,-1,-1,-1,-1,-1,-1,-1,-1,-1,-1,-1,43,45,65,74,62,52,60,63,62,49,43,40,23,18,24,21,5,5,3,12,26,31,24,22,39,38,48,38,24,30,40,40,46,34,26,31,55,63,54,40,41,58,50,33,33,39,42,45,55,39,24,34,24,21,27,43,65,35,24,17,16,8,12,12,8,13,12,8,16,18,20,29,34,33,36,37,17,16,32,38,41,32,37,36,31,28,32,31,33,33,23,24,24,20,17,19,18,5,0,5,13,10,13,15,8,13,13,12,18,25,29,20,8,5,17,17,16,13,5,15,15,8,8,13,5,0,0,0,5,13,12,9,3,0,0,5,8,8,11,13,12,16,12,13,17,17,20,22,29,34,19,22,8,24,34,43,63,75,80,69,57,53,53,57,59,64,58,47,46,42,42,20,13,25,16,0,0,12,12,5,8,13,5,13,13,8,5,13,18,12,12,16,16,12,3,11,16,25,16,18,10,8,13,16,12,5,7,19,21,11,14,17,12,12,3,0,8,16,20,13,10,13,22,28,21,17,5,0,0,5,15,17,17,16,24,46,52,54,59,61,65,57,58,68,72,60,45,52,49,50,38,22,27,32,29,28,27,36,33,22,29,30,24,28,21,18,24,15,5,8,10,17,13,13,16,12,8,13,11,13,8,8,9,3,5,8,13,13,10,8,8,8,8,7,13,8,12,12,8,13,13,12,13,10,8,15,12,8,8,13,5,0,8,12,3,0,0,0,0,0,0,0,0,0,0,0,5,3,5,0,0,12,12,0,5,8,12,12,15,8,18,14,10,5,10,14,20,12,15,8,0,0,5,3,5,13,9,12,10,17,14,13,10,5,5,8,12,12,8,11,10,5,10,11,8,13,10,5,0,0,0,12,12,0,5,10,10,4,5,10,10,5,0,0,0,0,8,15,13,13,13,13,12,8,5,10,10,5,0,0,0,0,0,0,0,5,13,8,8,13,10,8,8,5,13,8,8,13,13,8,11,13,13,10,4,-1,-1,-1,-1,-1,-1,-1,-1,-1,-1,-1,-1,-1,-1,-1,-1,-1,-1,-1,-1,-1,-1,-1,-1,-1,-1,-1,-1,-1,-1,-1,-1,-1,-1,-1,-1,-1,-1,-1
-1,-1,-1,-1,-1,-1,-1,-1,-1,-1,-1,-1,-1,-1,-1,-1,-1,-1,-1,-1,-1,-1,-1,-1,-1,-1,-1,-1,-1,-1,-1,-1,-1,-1,-1,-1,-1,-1,-1,-1,-1,-1,-1,-1,-1,-1,-1,-1,-1,-1,-1,-1,-1,-1,-1,-1,-1,0,0,0,-1,-1,-1,-1,-1,-1,-1,-1,-1,-1,-1,-1,-1,-1,-1,-1,-1,-1,-1,-1,42,43,55,69,73,55,60,66,63,55,44,36,32,16,12,19,15,5,5,10,25,22,22,19,26,30,27,27,11,18,37,48,39,34,26,24,46,62,61,58,41,44,50,35,36,33,36,57,50,30,27,28,36,27,24,37,50,28,17,25,16,5,8,8,5,5,21,20,24,30,17,17,28,24,17,23,23,18,24,33,35,31,28,28,28,24,20,16,21,17,17,21,17,13,5,12,8,8,12,12,15,5,14,17,8,7,16,15,12,13,17,16,15,13,10,3,18,10,10,15,15,8,8,12,3,0,0,0,8,13,3,3,4,8,8,10,15,13,13,16,16,11,16,11,8,8,11,22,21,20,28,17,9,32,32,51,76,75,65,61,49,50,52,57,62,64,47,48,46,38,29,8,15,24,16,8,8,13,8,8,13,10,8,13,8,0,8,17,13,9,14,26,15,13,8,13,9,20,8,8,14,8,3,12,12,10,13,18,13,8,20,10,8,12,8,5,13,16,12,3,4,17,20,17,13,12,5,0,0,0,5,8,20,14,12,31,37,44,49,58,62,59,61,74,69,67,59,50,54,60,58,32,24,26,31,45,39,38,52,37,31,26,18,24,25,8,20,17,5,3,13,9,13,17,11,13,13,12,13,8,12,8,8,5,3,13,10,10,13,13,15,8,0,5,3,5,8,13,12,16,12,8,13,8,12,12,0,0,12,12,0,5,10,10,5,8,12,8,8,8,12,12,12,8,5,0,0,0,0,5,3,8,13,5,3,13,13,12,8,16,16,15,5,8,13,12,12,0,8,15,12,8,5,0,3,12,13,16,12,9,13,8,13,8,0,0,5,8,13,11,8,13,10,8,15,8,5,0,0,0,5,13,8,0,0,5,10,13,8,8,15,8,0,0,0,0,8,13,4,8,8,8,5,0,8,13,5,0,0,0,0,0,0,0,0,5,13,8,0,5,13,8,0,3,13,13,13,8,5,8,13,5,5,10,13,-1,-1,-1,-1,-1,-1,-1,-1,-1,-1,-1,-1,-1,-1,-1,-1,-1,-1,-1,-1,-1,-1,-1,-1,-1,-1,-1,-1,-1,-1,-1,-1,-1,-1,-1,-1,-1,-1,-1
-1,-1,-1,-1,-1,-1,-1,-1,-1,-1,-1,-1,-1,-1,-1,-1,-1,-1,-1,-1,-1,-1,-1,-1,-1,-1,-1,-1,-1,-1,-1,-1,-1,-1,-1,-1,-1,-1,-1,-1,-1,-1,-1,-1,-1,-1,-1,-1,-1,-1,-1,-1,-1,-1,-1,-1,-1,0,0,0,0,-1,-1,-1,-1,-1,-1,-1,-1,-1,-1,-1,-1,-1,-1,-1,-1,-1,-1,-1,37,33,41,67,74,51,46,62,69,64,53,33,27,22,10,19,19,13,8,15,5,13,21,24,19,29,25,27,29,20,26,32,37,34,17,12,29,54,63,57,45,43,50,43,40,33,33,55,58,43,38,31,38,40,13,16,24,13,10,21,17,13,13,15,8,5,21,26,35,27,22,26,18,7,13,17,18,17,21,20,28,28,24,20,16,12,12,8,5,8,13,5,0,3,17,17,8,15,12,12,8,8,8,13,8,8,15,13,17,8,12,5,8,8,8,8,13,12,5,8,8,4,10,10,5,0,0,5,13,8,0,5,10,13,15,9,12,3,12,12,13,12,13,13,10,5,12,24,25,24,21,14,14,37,40,59,75,76,63,58,49,49,49,58,63,55,46,46,43,33,30,10,14,22,20,15,8,13,10,9,8,8,0,8,13,5,8,17,19,17,16,19,10,8,17,17,12,11,17,8,3,4,3,8,17,17,9,13,8,13,9,12,7,17,21,21,14,15,8,0,3,12,13,16,12,13,3,0,0,0,0,0,12,12,3,10,13,16,19,26,46,54,52,65,66,59,61,63,55,60,57,46,35,29,30,42,45,49,47,39,37,29,17,24,28,15,20,22,30,20,20,16,20,17,12,13,10,7,13,13,12,15,7,3,5,10,13,8,4,8,15,8,5,8,12,8,5,13,12,13,13,8,12,12,13,8,0,0,8,15,12,13,10,5,8,15,12,13,12,13,12,12,12,15,8,5,3,5,0,8,13,8,13,8,5,10,10,3,15,16,15,5,0,12,12,12,12,0,5,8,12,13,10,5,5,10,13,7,10,10,13,12,8,15,12,12,13,13,8,8,15,8,5,13,8,0,0,0,5,8,13,10,5,0,0,0,5,8,15,10,13,8,0,5,8,8,4,13,8,5,10,13,8,0,8,15,12,12,12,8,5,5,3,5,0,3,12,8,0,0,8,13,5,5,8,8,5,0,5,13,8,0,0,5,8,-1,-1,-1,-1,-1,-1,-1,-1,-1,-1,-1,-1,-1,-1,-1,-1,-1,-1,-1,-1,-1,-1,-1,-1,-1,-1,-1,-1,-1,-1,-1,-1,-1,-1,-1,-1,-1,-1,-1
-1,-1,-1,-1,-1,-1,-1,-1,-1,-1,-1,-1,-1,-1,-1,-1,-1,-1,-1,-1,-1,-1,-1,-1,-1,-1,-1,-1,-1,-1,-1,-1,-1,-1,-1,-1,-1,-1,-1,-1,-1,-1,-1,-1,-1,-1,-1,-1,-1,-1,-1,-1,-1,-1,-1,-1,-1,0,0,0,0,-1,-1,-1,-1,-1,-1,-1,-1,-1,-1,-1,-1,-1,-1,-1,-1,-1,-1,-1,-1,33,28,41,61,59,31,49,62,74,68,45,33,36,26,20,25,23,15,8,0,5,15,19,26,22,24,32,33,32,28,27,27,27,12,11,29,51,59,57,48,43,39,46,41,33,35,50,54,52,57,54,49,48,40,27,31,28,16,18,12,12,12,13,17,5,21,21,20,28,28,32,18,5,12,12,8,8,5,7,15,13,8,13,13,10,5,0,0,12,12,0,0,5,13,17,13,8,0,0,0,0,8,13,5,8,15,18,16,18,13,3,5,10,13,13,13,8,0,0,0,8,13,5,0,0,5,10,10,5,5,10,10,5,8,13,8,8,13,13,8,8,5,8,11,10,18,28,28,27,14,8,20,37,49,76,75,66,63,54,54,50,55,63,58,49,46,40,36,29,17,12,11,16,13,13,9,17,14,8,13,3,0,5,13,8,3,13,19,20,8,8,13,13,19,17,3,8,9,10,8,7,13,13,17,13,8,8,8,9,9,12,13,13,21,11,15,10,5,0,5,10,12,13,20,8,5,5,5,8,8,8,18,10,5,5,10,13,16,25,29,37,41,58,55,54,60,68,68,57,55,55,49,40,34,39,45,45,46,31,34,21,24,32,22,22,28,32,28,29,17,15,16,16,13,8,5,5,3,5,0,12,16,9,3,5,8,15,8,14,4,13,13,13,12,15,8,12,12,10,14,18,8,17,18,13,8,5,5,8,12,8,5,5,13,8,0,3,7,3,0,0,0,8,13,5,9,5,5,8,13,8,8,15,8,9,17,13,14,18,5,0,5,13,8,8,13,5,0,0,0,5,13,8,0,5,3,5,5,10,13,8,5,8,12,12,12,12,8,13,12,5,5,8,10,5,0,5,10,13,8,5,0,5,8,12,12,8,8,13,10,5,0,8,15,13,13,15,8,3,13,14,8,0,5,8,12,12,12,15,8,8,13,8,0,8,12,3,0,0,5,10,13,12,12,12,12,12,13,10,5,0,0,0,0,0,-1,-1,-1,-1,-1,-1,-1,-1,-1,-1,-1,-1,-1,-1,-1,-1,-1,-1,-1,-1,-1,-1,-1,-1,-1,-1,-1,-1,-1,-1,-1,-1,-1,-1,-1,-1,-1,-1
-1,-1,-1,-1,-1,-1,-1,-1,-1,-1,-1,-1,-1,-1,-1,-1,-1,-1,-1,-1,-1,-1,-1,-1,-1,-1,-1,-1,-1,-1,-1,-1,-1,-1,-1,-1,-1,-1,-1,-1,-1,-1,-1,-1,-1,-1,-1,-1,-1,-1,-1,-1,-1,-1,-1,-1,-1,0,0,0,0,-1,-1,-1,-1,-1,-1,-1,-1,-1,-1,-1,-1,-1,-1,-1,-1,-1,-1,-1,-1,42,41,28,61,57,32,36,48,61,57,47,60,57,29,8,20,18,8,5,0,0,5,10,19,24,22,32,38,44,29,19,31,34,32,28,37,45,50,54,54,55,40,43,43,33,36,44,46,50,64,60,57,55,50,45,43,36,25,21,17,13,12,23,21,8,21,18,5,12,21,35,25,8,13,8,8,13,12,14,20,13,12,13,13,13,3,0,5,10,20,8,5,5,13,12,12,8,0,0,0,0,8,15,12,8,8,10,17,13,10,5,8,13,5,5,3,5,3,5,0,12,12,0,0,0,8,13,5,5,10,10,5,0,5,8,8,15,10,8,13,13,13,12,11,11,20,24,27,29,12,10,20,42,58,69,78,60,60,53,52,62,54,63,54,45,50,43,32,21,14,12,16,12,13,4,14,17,8,15,13,3,0,0,12,12,10,10,12,12,0,8,14,17,3,17,8,5,5,8,14,12,13,8,8,10,10,8,11,12,10,0,12,13,13,10,10,8,5,3,5,5,3,4,18,13,9,5,10,13,16,25,24,20,15,5,5,8,12,21,22,27,32,41,46,44,44,52,63,69,68,58,52,41,26,36,34,34,42,45,33,23,22,28,25,19,15,24,25,24,19,16,16,13,11,10,5,5,13,20,20,13,8,8,5,0,5,13,8,13,13,12,8,5,5,13,8,12,13,8,18,17,8,18,11,12,13,13,12,12,12,12,12,13,10,5,8,13,13,8,0,0,0,8,12,5,5,9,8,7,12,3,5,8,13,17,16,15,12,13,3,5,8,13,5,10,8,5,5,0,0,0,12,12,0,0,0,0,0,5,3,5,0,0,5,10,13,13,10,10,8,3,9,8,13,10,5,3,13,13,12,12,12,13,13,16,16,13,11,8,5,0,0,12,12,3,11,11,3,5,8,8,5,0,0,0,0,0,0,12,12,8,13,8,0,8,13,5,0,0,0,5,8,12,16,15,15,16,7,5,0,0,0,0,0,0,-1,-1,-1,-1,-1,-1,-1,-1,-1,-1,-1,-1,-1,-1,-1,-1,-1,-1,-1,-1,-1,-1,-1,-1,-1,-1,-1,-1,-1,-1,-1,-1,-1,-1,-1,-1,-1,-1
-1,-1,-1,-1,-1,-1,-1,-1,-1,-1,-1,-1,-1,-1,-1,-1,-1,-1,-1,-1,-1,-1,-1,-1,-1,-1,-1,-1,-1,-1,-1,-1,-1,-1,-1,-1,-1,-1,-1,-1,-1,-1,-1,-1,-1,-1,-1,-1,-1,-1,-1,-1,-1,-1,-1,-1,-1,-1,0,0,0,0,-1,-1,-1,-1,-1,-1,-1,-1,-1,-1,-1,-1,-1,-1,-1,-1,-1,-1,-1,-1,41,29,65,64,31,31,43,43,29,42,72,64,37,8,22,23,12,12,8,5,0,5,15,21,22,32,43,38,26,20,20,37,41,33,38,35,41,51,53,49,43,41,46,38,40,41,36,37,41,44,49,52,49,50,50,41,37,27,21,12,12,14,26,24,18,10,8,8,10,20,20,12,11,11,13,8,8,15,17,11,8,8,12,8,5,0,8,17,11,15,8,8,13,3,10,13,8,8,3,5,5,7,16,17,15,5,8,8,5,0,12,12,0,0,5,10,13,10,8,15,8,0,0,0,12,12,0,8,13,5,0,0,0,3,13,10,5,0,5,8,8,8,13,8,18,21,29,20,13,11,17,37,55,67,67,55,55,52,60,56,57,60,53,45,49,59,36,13,13,10,12,12,18,13,16,16,13,19,21,15,3,8,20,19,14,7,8,13,5,5,7,12,12,13,8,0,3,16,29,18,23,23,38,37,32,17,13,20,21,12,13,11,8,8,13,8,3,14,10,12,8,7,17,14,8,5,12,12,18,16,15,18,11,17,13,5,8,17,22,22,24,37,41,49,52,49,55,69,80,84,69,51,45,30,41,31,43,50,38,19,14,28,24,24,25,16,18,21,25,34,26,14,10,13,15,10,19,30,26,11,4,5,5,5,10,10,8,3,5,5,8,8,8,13,10,8,10,9,16,16,15,11,20,8,5,8,12,12,12,12,12,8,8,13,13,8,13,12,0,0,0,3,12,8,5,3,8,15,16,21,13,5,5,10,18,5,8,13,13,8,8,13,8,13,9,8,10,5,0,0,8,13,5,0,0,0,0,5,8,12,8,5,8,13,5,3,9,5,5,5,3,5,5,10,13,8,8,12,12,12,16,12,11,13,15,8,10,10,5,0,0,12,12,8,15,13,10,5,0,0,0,0,0,0,0,0,0,8,13,5,3,5,0,12,12,0,0,0,0,0,5,10,13,12,12,13,13,12,12,12,12,8,5,0,-1,-1,-1,-1,-1,-1,-1,-1,-1,-1,-1,-1,-1,-1,-1,-1,-1,-1,-1,-1,-1,-1,-1,-1,-1,-1,-1,-1,-1,-1,-1,-1,-1,-1,-1,-1,-1,-1
-1,-1,-1,-1,-1,-1,-1,-1,-1,-1,-1,-1,-1,-1,-1,-1,-1,-1,-1,-1,-1,-1,-1,-1,-1,-1,-1,-1,-1,-1,-1,-1,-1,-1,-1,-1,-1,-1,-1,-1,-1,-1,-1,-1,-1,-1,-1,-1,-1,-1,-1,-1,-1,-1,-1,-1,-1,-1,-1,-1,0,-1,-1,-1,-1,-1,-1,-1,-1,-1,-1,-1,-1,-1,-1,-1,-1,-1,-1,-1,-1,-1,45,37,70,64,31,35,44,39,27,33,61,58,50,13,16,30,24,16,13,10,5,0,5,18,22,34,40,40,33,23,25,24,31,27,31,28,36,37,42,46,44,44,44,43,41,40,33,36,43,40,35,39,46,50,49,44,38,30,22,15,15,20,34,26,10,5,13,14,4,17,20,16,13,11,8,12,12,12,12,13,13,12,12,8,5,0,8,13,8,13,8,8,13,5,5,8,13,12,12,13,8,10,14,18,17,8,0,0,5,8,15,8,5,8,13,10,13,4,15,8,5,0,0,0,12,12,0,8,13,5,0,0,0,5,13,8,0,0,0,0,0,5,8,10,28,27,19,13,8,17,20,44,64,71,68,55,59,52,61,61,53,60,53,45,53,40,8,12,12,17,23,16,13,18,13,9,9,16,27,20,13,13,14,19,20,17,18,18,10,12,13,20,14,20,13,12,28,29,36,28,42,45,62,59,53,45,25,20,13,12,13,10,10,8,13,10,5,10,20,12,15,16,15,9,12,5,17,11,10,12,12,12,5,17,18,8,8,13,16,15,12,20,34,50,56,43,38,51,89,85,71,57,54,44,41,40,41,43,43,34,17,8,13,20,23,20,18,19,29,29,29,22,21,20,21,17,24,23,17,16,8,8,10,10,13,5,0,0,0,8,15,13,11,8,15,8,8,8,13,7,8,18,17,17,15,5,5,8,12,12,12,13,13,8,5,0,8,13,5,0,0,5,13,8,0,0,8,17,18,20,15,10,8,13,8,0,5,5,13,8,5,13,8,8,8,9,12,3,0,0,5,13,8,0,0,0,5,10,13,12,15,8,8,15,12,8,5,5,0,5,8,12,8,5,8,13,13,12,12,13,12,12,10,4,13,8,5,13,8,0,0,12,12,12,12,5,10,10,5,0,0,0,0,0,0,0,0,5,10,13,8,5,0,8,13,5,0,0,0,5,10,10,5,0,0,5,8,12,12,12,12,13,13,12,-1,-1,-1,-1,-1,-1,-1,-1,-1,-1,-1,-1,-1,-1,-1,-1,-1,-1,-1,-1,-1,-1,-1,-1,-1,-1,-1,-1,-1,-1,-1,-1,-1,-1,-1,-1,-1,-1
-1,-1,-1,-1,-1,-1,-1,-1,-1,-1,-1,-1,-1,-1,-1,-1,-1,-1,-1,-1,-1,-1,-1,-1,-1,-1,-1,-1,-1,-1,-1,-1,-1,-1,-1,-1,-1,-1,-1,-1,-1,-1,-1,-1,-1,-1,-1,-1,-1,-1,-1,-1,-1,-1,-1,-1,-1,-1,-1,-1,-1,-1,-1,-1,-1,-1,-1,-1,-1,-1,-1,-1,-1,-1,-1,-1,-1,-1,-1,-1,-1,-1,50,43,59,48,35,40,40,35,31,32,43,51,41,16,17,24,29,19,16,11,10,5,0,12,15,28,35,36,32,27,25,13,21,29,32,29,24,21,37,43,44,44,44,44,44,43,38,40,43,38,30,22,32,42,48,40,38,40,27,15,16,15,24,29,20,8,11,13,10,15,17,15,16,13,13,16,12,12,13,13,16,15,16,13,13,12,8,5,8,13,13,12,14,18,12,12,8,8,8,7,17,17,4,13,12,12,0,0,3,13,10,5,8,15,12,5,13,14,8,0,0,0,0,0,12,12,0,5,13,8,0,0,0,0,12,12,0,0,0,0,0,3,13,12,26,30,18,5,8,21,37,58,60,63,63,64,59,56,60,61,49,61,59,42,48,42,5,8,15,17,25,12,8,12,5,15,13,30,18,24,16,11,11,13,12,17,17,17,18,12,17,21,16,23,23,12,22,46,38,16,29,64,64,75,75,63,59,29,12,12,12,5,10,17,20,20,21,18,8,0,12,15,15,9,15,12,23,18,9,9,13,13,13,12,8,15,8,8,12,15,12,3,18,32,40,36,30,24,52,67,66,63,55,47,49,53,50,40,31,31,21,18,8,17,29,24,19,20,29,24,19,29,29,21,22,8,17,33,26,20,13,9,12,5,15,8,3,8,8,13,12,8,12,8,13,8,12,16,13,5,0,5,8,20,14,13,13,13,16,15,15,16,7,5,5,8,8,10,10,5,0,0,12,12,0,0,5,15,14,7,5,13,17,10,5,5,8,13,10,5,0,8,13,5,0,3,12,8,0,5,8,15,8,0,0,5,10,10,5,0,12,12,5,8,12,13,13,12,12,13,13,12,13,13,8,5,8,12,12,8,8,5,8,13,10,5,0,12,12,0,0,12,12,12,12,0,5,10,13,8,5,0,0,0,0,0,0,0,5,8,13,10,5,5,13,8,0,0,0,8,13,5,0,0,0,0,0,0,0,0,0,5,8,12,8,-1,-1,-1,-1,-1,-1,-1,-1,-1,-1,-1,-1,-1,-1,-1,-1,-1,-1,-1,-1,-1,-1,-1,-1,-1,-1,-1,-1,-1,-1,-1,-1,-1,-1,-1,-1,-1
-1,-1,-1,-1,-1,-1,-1,-1,-1,-1,-1,-1,-1,-1,-1,-1,-1,-1,-1,-1,-1,-1,-1,-1,-1,-1,-1,-1,-1,-1,-1,-1,-1,-1,-1,-1,-1,-1,-1,-1,-1,-1,-1,-1,-1,-1,-1,-1,-1,-1,-1,-1,-1,-1,-1,-1,-1,-1,-1,-1,-1,-1,-1,-1,-1,-1,-1,-1,-1,-1,-1,-1,-1,-1,-1,-1,-1,-1,-1,-1,-1,-1,54,51,38,36,41,40,35,31,31,35,48,43,36,28,23,12,20,22,14,13,14,18,12,15,16,24,32,37,37,33,20,12,8,24,32,19,8,15,22,40,44,44,44,44,44,46,39,33,36,41,35,24,26,31,31,31,40,38,29,15,17,19,22,26,25,20,25,24,16,12,16,16,11,12,13,13,8,5,7,16,15,15,17,18,16,16,13,13,12,16,15,15,20,25,20,15,17,18,12,8,14,5,10,15,13,20,10,0,5,10,10,5,8,18,21,15,4,10,5,0,0,5,8,12,15,8,0,5,13,8,0,0,0,0,12,12,0,5,3,5,0,3,13,18,13,20,13,3,15,21,36,49,57,64,67,60,56,60,59,60,52,56,57,37,39,37,5,12,16,16,18,3,8,13,13,12,8,16,19,22,16,14,8,8,13,18,9,5,8,0,0,5,8,13,17,5,26,35,25,21,50,55,48,44,50,75,68,52,21,8,13,8,10,8,22,18,21,13,10,16,23,22,17,10,8,12,8,17,4,13,13,8,8,15,8,16,14,13,20,22,10,7,17,30,34,36,37,32,41,45,58,57,59,44,51,61,61,55,39,26,31,34,25,26,21,22,17,16,28,24,13,25,20,20,20,14,21,22,29,19,8,15,14,11,12,15,12,13,13,5,15,13,10,8,13,5,12,16,13,5,0,0,0,8,13,12,12,13,13,12,13,9,13,3,3,13,13,5,10,10,5,5,13,8,5,3,3,8,11,10,7,17,10,5,5,10,13,8,8,5,0,5,13,8,0,5,10,10,5,8,15,8,5,0,0,8,13,5,0,0,8,13,5,0,0,5,8,12,12,8,5,0,5,10,10,8,8,5,0,0,0,8,15,8,5,5,8,15,8,8,8,12,12,8,13,5,0,5,8,13,10,5,0,0,0,0,5,8,8,5,5,10,10,5,12,12,0,0,0,12,12,0,0,0,0,0,0,5,8,8,5,0,0,0,0,-1,-1,-1,-1,-1,-1,-1,-1,-1,-1,-1,-1,-1,-1,-1,-1,-1,-1,-1,-1,-1,-1,-1,-1,-1,-1,-1,-1,-1,-1,-1,-1,-1,-1,-1,-1,-1
-1,-1,-1,-1,-1,-1,-1,-1,-1,-1,-1,-1,-1,-1,-1,-1,-1,-1,-1,-1,-1,-1,-1,-1,-1,-1,-1,-1,-1,-1,-1,-1,-1,-1,-1,-1,-1,-1,-1,-1,-1,-1,-1,-1,-1,-1,-1,-1,-1,-1,-1,-1,-1,-1,-1,-1,-1,-1,-1,-1,-1,-1,-1,-1,-1,-1,-1,-1,-1,-1,-1,-1,-1,-1,-1,-1,-1,-1,-1,-1,-1,-1,59,48,30,32,28,36,37,36,35,44,44,45,38,31,13,0,12,15,12,8,18,17,15,16,15,20,33,33,34,34,29,20,14,24,26,21,10,16,20,36,43,43,43,43,41,49,52,40,43,45,36,37,26,37,34,24,30,38,39,20,22,22,22,19,22,20,24,28,24,16,12,13,12,13,8,10,15,18,17,16,12,12,18,17,16,13,13,16,15,15,15,16,17,21,16,15,22,22,16,8,10,13,8,12,20,29,23,5,0,5,13,8,5,13,16,17,13,3,0,0,0,8,15,13,5,8,0,3,13,10,5,0,0,0,8,15,12,13,12,10,3,5,8,10,20,18,20,20,21,22,31,52,56,64,75,74,57,59,60,56,61,57,48,37,27,29,15,13,8,18,18,3,12,12,12,12,8,18,26,21,16,18,13,13,18,16,21,16,21,17,12,12,5,12,8,8,25,26,13,17,42,61,54,38,25,52,69,65,39,8,14,21,17,21,3,8,8,20,22,25,20,21,16,8,12,8,4,8,15,8,11,17,18,15,16,23,17,4,14,23,14,21,12,22,28,35,33,43,46,47,45,45,49,50,43,71,68,58,48,36,29,34,33,32,17,22,20,20,28,28,15,8,12,24,29,17,10,16,20,12,5,16,21,9,17,17,7,8,8,8,8,8,5,12,12,0,12,12,10,13,8,5,0,5,10,12,13,8,5,5,10,13,8,8,8,8,8,5,5,13,8,8,13,5,8,13,11,13,11,13,12,13,8,5,10,10,5,10,13,8,0,0,8,13,5,0,5,13,8,8,15,8,5,0,0,12,12,0,0,0,5,10,10,5,0,0,0,0,0,0,0,0,0,3,9,8,13,10,5,0,0,12,12,0,0,8,15,8,8,15,15,16,12,5,13,8,0,0,0,5,10,10,5,0,0,5,10,13,15,8,0,5,13,8,12,12,0,0,0,12,12,0,0,0,0,0,5,10,13,13,13,8,5,0,5,-1,-1,-1,-1,-1,-1,-1,-1,-1,-1,-1,-1,-1,-1,-1,-1,-1,-1,-1,-1,-1,-1,-1,-1,-1,-1,-1,-1,-1,-1,-1,-1,-1,-1,-1,-1,-1
-1,-1,-1,-1,-1,-1,-1,-1,-1,-1,-1,-1,-1,-1,-1,-1,-1,-1,-1,-1,-1,-1,-1,-1,-1,-1,-1,-1,-1,-1,-1,-1,-1,-1,-1,-1,-1,-1,-1,-1,-1,-1,-1,-1,-1,-1,-1,-1,-1,-1,-1,-1,-1,-1,-1,-1,-1,-1,-1,-1,-1,-1,-1,-1,-1,-1,-1,-1,-1,-1,-1,-1,-1,-1,-1,-1,-1,-1,-1,-1,-1,-1,58,35,19,16,17,31,38,44,47,48,45,36,40,34,13,8,13,16,15,8,5,8,12,12,8,10,27,42,37,46,45,32,17,27,31,27,23,12,15,20,29,34,36,38,43,51,54,43,41,45,43,43,41,43,42,32,30,38,35,25,23,22,19,19,22,20,15,20,23,16,13,8,8,5,8,12,16,22,22,20,23,12,12,12,13,13,16,15,15,15,15,17,18,12,16,16,18,14,13,11,8,12,15,5,13,30,19,8,0,5,13,8,0,0,0,8,13,5,0,0,0,8,15,13,12,10,5,5,8,15,7,3,5,0,8,5,13,8,9,17,13,8,23,20,8,22,28,14,22,22,21,53,55,64,75,68,55,64,60,60,62,53,49,28,20,24,20,10,5,14,17,7,13,8,12,12,5,8,23,19,15,5,16,21,8,18,8,19,20,15,8,13,25,22,7,8,14,32,21,16,22,47,56,40,33,40,74,76,40,15,18,12,17,20,17,8,8,16,20,14,8,20,13,13,13,13,3,0,12,16,13,21,5,13,5,22,26,15,16,27,17,13,19,18,26,35,27,36,46,45,48,43,53,48,41,56,68,62,44,38,24,17,29,30,24,24,29,24,24,28,17,0,8,24,31,17,21,21,13,13,12,17,25,16,13,18,5,5,3,5,0,0,0,12,12,0,12,12,5,8,13,10,8,3,5,3,5,0,5,10,11,8,13,13,13,10,5,0,0,12,12,13,8,0,8,13,11,13,10,14,18,8,5,8,13,5,10,10,10,15,8,5,5,10,10,3,8,15,8,5,8,15,8,0,0,8,13,5,0,0,0,5,10,13,12,12,8,5,0,0,0,0,0,5,3,5,5,13,8,0,0,8,13,5,0,12,12,0,12,12,12,16,13,3,13,8,0,5,3,5,5,13,8,0,0,8,13,5,12,12,0,0,8,13,8,15,12,8,5,12,12,0,0,0,0,0,8,13,5,5,8,15,8,5,10,-1,-1,-1,-1,-1,-1,-1,-1,-1,-1,-1,-1,-1,-1,-1,-1,-1,-1,-1,-1,-1,-1,-1,-1,-1,-1,-1,-1,-1,-1,-1,-1,-1,-1,-1,-1,-1
-1,-1,-1,-1,-1,-1,-1,-1,-1,-1,-1,-1,-1,-1,-1,-1,-1,-1,-1,-1,-1,-1,-1,-1,-1,-1,-1,-1,-1,-1,-1,-1,-1,-1,-1,-1,-1,-1,-1,-1,-1,-1,-1,-1,-1,-1,-1,-1,-1,-1,-1,-1,-1,-1,-1,-1,-1,-1,-1,-1,-1,-1,-1,-1,-1,-1,-1,-1,-1,-1,-1,-1,-1,-1,-1,-1,-1,-1,-1,-1,-1,-1,64,27,21,8,15,35,44,51,60,57,45,32,28,26,17,17,8,18,8,13,10,5,0,0,8,18,36,32,38,55,67,52,23,24,29,22,13,0,12,15,16,27,35,38,36,51,49,44,44,43,43,44,44,44,41,35,34,30,32,29,24,25,20,17,22,16,16,12,19,29,20,17,18,13,13,12,12,11,23,32,19,12,12,13,13,16,15,15,15,15,16,18,17,15,15,17,18,14,16,11,10,5,8,14,5,14,16,15,12,13,10,5,5,8,12,15,8,0,0,0,0,5,8,8,8,10,10,5,0,12,16,13,8,0,8,13,13,12,13,13,17,9,16,26,5,29,29,10,16,15,24,44,51,72,75,59,59,58,63,68,60,51,53,20,15,20,13,5,5,3,12,16,13,10,8,15,8,12,16,13,8,8,17,13,5,13,10,7,12,13,12,13,35,35,15,12,0,32,38,26,27,43,41,31,42,70,84,69,52,14,8,18,24,19,9,12,12,15,12,8,20,20,21,13,13,10,4,3,8,18,24,29,21,22,17,19,17,16,15,24,28,20,7,8,15,32,32,19,36,45,49,53,43,48,42,50,66,62,43,38,30,18,10,17,21,25,29,37,27,28,20,0,8,25,21,20,32,32,20,8,12,18,20,15,13,8,0,8,13,8,0,0,5,18,11,12,15,8,0,5,8,11,12,12,10,5,0,0,8,13,11,13,12,3,5,13,8,5,8,20,14,10,5,0,5,8,5,10,10,18,17,8,0,12,12,8,13,5,4,8,15,8,0,8,12,7,13,9,5,8,8,15,8,0,0,5,10,10,5,0,0,0,5,8,12,12,13,13,12,12,8,5,0,0,0,0,0,12,12,0,0,5,10,10,5,8,13,5,8,15,15,12,12,12,13,5,5,10,12,10,5,12,12,0,0,8,13,8,13,8,0,0,5,10,10,8,12,13,13,15,8,0,0,0,0,5,13,8,0,0,5,13,8,10,10,-1,-1,-1,-1,-1,-1,-1,-1,-1,-1,-1,-1,-1,-1,-1,-1,-1,-1,-1,-1,-1,-1,-1,-1,-1,-1,-1,-1,-1,-1,-1,-1,-1,-1,-1,-1,-1
-1,-1,-1,-1,-1,-1,-1,-1,-1,-1,-1,-1,-1,-1,-1,-1,-1,-1,-1,-1,-1,-1,-1,-1,-1,-1,-1,-1,-1,-1,-1,-1,-1,-1,-1,-1,-1,-1,-1,-1,-1,-1,-1,-1,-1,-1,-1,-1,-1,-1,-1,-1,-1,-1,-1,-1,-1,-1,-1,-1,-1,-1,-1,-1,-1,-1,-1,-1,-1,-1,-1,-1,-1,-1,-1,-1,-1,-1,-1,-1,-1,-1,-1,23,23,13,13,38,47,55,63,61,35,28,17,21,21,24,21,22,26,13,13,8,0,0,8,15,18,17,21,47,76,74,21,16,25,14,10,20,21,12,15,24,32,35,38,42,42,41,43,41,40,41,47,49,41,36,31,24,27,27,30,29,19,15,10,12,13,16,29,26,24,21,25,20,12,12,8,8,18,27,17,0,0,5,8,12,12,12,16,12,13,13,16,15,16,18,14,18,16,16,11,13,12,12,18,21,13,16,15,16,12,12,13,13,12,8,5,0,0,0,0,0,0,5,3,9,12,3,5,13,11,13,8,5,13,10,8,12,8,10,9,13,20,13,4,25,24,12,12,15,28,43,51,80,80,55,59,59,63,59,51,60,48,20,17,11,15,8,5,5,18,13,4,13,13,9,13,16,15,16,15,18,17,15,13,10,5,3,13,10,9,5,20,30,20,14,13,41,41,25,29,29,22,7,42,46,43,62,25,12,13,23,35,14,18,11,15,11,15,8,8,17,23,15,11,5,10,13,8,12,25,24,31,26,18,20,13,15,14,29,30,25,21,13,10,23,32,32,33,42,50,51,50,48,45,39,67,60,34,34,31,17,11,13,7,17,25,32,41,38,33,10,8,8,8,16,26,32,22,13,0,3,12,8,3,5,0,8,13,8,0,0,13,19,18,12,8,4,8,13,12,11,8,8,13,8,0,5,13,12,13,8,9,3,0,12,12,8,15,14,15,5,0,0,0,8,13,8,10,13,16,12,0,8,13,8,13,13,8,0,12,12,0,8,13,3,10,12,12,12,13,8,5,0,0,0,5,13,8,0,0,0,5,3,5,0,5,8,12,12,13,13,12,8,5,0,0,12,12,0,0,0,5,13,8,5,10,10,5,8,8,8,13,12,12,0,8,13,8,10,10,8,13,5,0,5,10,12,10,5,0,0,0,8,12,3,0,5,8,8,5,0,5,8,8,8,12,8,5,8,13,10,8,13,5,5,-1,-1,-1,-1,-1,-1,-1,-1,-1,-1,-1,-1,-1,-1,-1,-1,-1,-1,-1,-1,-1,-1,-1,-1,-1,-1,-1,-1,-1,-1,-1,-1,-1,-1,-1,-1
-1,-1,-1,-1,-1,-1,-1,-1,-1,-1,-1,-1,-1,-1,-1,-1,-1,-1,-1,-1,-1,-1,-1,-1,-1,-1,-1,-1,-1,-1,-1,-1,-1,-1,-1,-1,-1,-1,-1,-1,-1,-1,-1,-1,-1,-1,-1,-1,-1,-1,-1,-1,-1,-1,-1,-1,-1,-1,-1,-1,-1,-1,-1,-1,-1,-1,-1,-1,-1,-1,-1,-1,-1,-1,-1,-1,-1,-1,-1,-1,-1,-1,-1,36,18,12,16,34,49,64,63,52,33,34,19,21,26,33,20,25,27,21,16,12,0,0,5,8,8,3,18,50,72,75,35,17,20,24,25,30,21,3,11,22,27,30,45,47,43,40,40,38,30,35,55,47,47,47,42,32,32,33,36,37,26,21,25,15,25,29,24,26,24,24,26,20,16,12,13,13,13,9,14,12,12,12,12,12,12,13,12,13,12,16,16,12,15,8,13,8,18,14,11,8,12,13,19,23,16,12,12,12,12,12,8,8,8,5,0,0,5,3,5,0,0,3,9,5,13,5,8,13,3,3,5,3,13,10,5,0,8,15,12,12,15,13,13,10,24,20,12,20,33,49,60,76,72,59,55,55,59,59,59,59,48,30,15,3,7,17,18,18,16,18,13,10,8,16,16,10,12,22,25,32,8,12,8,8,8,8,12,5,10,13,20,13,10,17,13,40,41,14,8,20,10,8,17,17,42,46,26,5,5,12,26,29,22,18,8,3,8,15,8,18,13,16,15,11,13,23,21,17,13,13,17,18,12,12,9,16,27,25,17,32,32,18,13,8,24,38,46,47,45,53,52,50,44,40,73,70,42,34,32,24,17,20,12,21,22,29,36,28,24,22,21,17,17,15,20,25,28,16,5,5,10,10,5,0,0,5,3,5,0,5,17,20,8,0,0,8,15,8,8,13,8,0,12,12,5,10,11,13,8,5,3,5,0,8,15,20,19,14,7,5,0,5,3,8,13,8,3,7,13,12,0,8,12,8,3,10,15,12,15,8,0,8,13,5,5,3,8,3,5,0,0,5,8,12,8,13,12,5,8,8,10,13,13,12,12,12,8,5,5,8,13,10,8,12,8,8,15,8,5,0,0,8,13,5,5,13,8,0,0,12,12,13,8,5,13,8,0,5,13,8,13,8,0,0,5,3,5,0,0,0,0,8,13,5,0,0,0,0,5,8,13,13,13,11,11,13,13,13,8,5,13,8,5,10,-1,-1,-1,-1,-1,-1,-1,-1,-1,-1,-1,-1,-1,-1,-1,-1,-1,-1,-1,-1,-1,-1,-1,-1,-1,-1,-1,-1,-1,-1,-1,-1,-1,-1,-1,-1
-1,-1,-1,-1,-1,-1,-1,-1,-1,-1,-1,-1,-1,-1,-1,-1,-1,-1,-1,-1,-1,-1,-1,-1,-1,-1,-1,-1,-1,-1,-1,-1,-1,-1,-1,-1,-1,-1,-1,-1,-1,-1,-1,-1,-1,-1,-1,-1,-1,-1,-1,-1,-1,-1,-1,-1,-1,-1,-1,-1,-1,-1,-1,-1,-1,-1,-1,-1,-1,-1,-1,-1,-1,-1,-1,-1,-1,-1,-1,-1,-1,-1,-1,44,29,16,11,29,46,61,60,40,25,19,26,30,33,33,28,13,18,25,25,20,12,12,12,8,5,0,12,41,65,65,45,32,17,28,31,22,20,14,13,21,24,25,38,42,43,36,40,54,58,40,41,50,44,46,43,35,36,33,40,38,40,34,32,27,23,24,20,20,24,24,26,27,14,13,12,16,15,15,15,15,15,15,15,15,15,16,12,12,16,16,13,10,8,13,8,13,12,12,13,8,0,5,18,11,13,10,5,0,0,0,8,14,13,3,5,8,13,12,10,5,0,5,3,13,12,0,8,15,12,12,8,5,10,10,5,3,13,8,10,13,17,24,21,16,28,17,12,28,33,46,61,63,63,60,56,51,64,63,59,59,47,37,4,3,5,14,10,11,18,5,5,10,12,18,12,8,17,25,7,32,26,21,8,17,13,12,17,5,13,14,16,12,5,10,8,33,43,13,10,15,12,8,8,20,43,39,25,13,12,8,13,31,8,13,5,8,5,8,12,7,8,12,14,22,25,27,29,17,8,13,12,8,13,8,9,7,21,30,9,25,22,22,16,18,22,40,51,43,48,50,49,49,43,34,70,68,41,37,41,34,19,22,17,25,19,28,31,28,20,17,23,16,21,20,29,24,24,17,10,13,9,17,10,8,5,0,0,0,0,8,12,12,5,3,5,12,12,0,0,12,12,5,13,8,10,11,11,10,5,0,0,0,0,5,7,14,18,18,14,8,5,15,16,16,8,5,3,9,10,8,0,8,13,5,0,5,8,12,8,5,0,5,10,13,12,12,12,12,8,8,8,13,13,12,13,13,8,8,15,15,9,13,8,12,12,12,15,8,0,0,8,10,8,13,13,5,8,13,13,8,5,5,10,10,5,8,15,12,12,15,12,13,5,8,13,5,0,0,12,12,12,12,0,0,0,0,0,0,0,0,0,12,12,0,5,8,8,5,8,15,8,5,5,13,8,8,8,5,0,8,13,5,8,13,-1,-1,-1,-1,-1,-1,-1,-1,-1,-1,-1,-1,-1,-1,-1,-1,-1,-1,-1,-1,-1,-1,-1,-1,-1,-1,-1,-1,-1,-1,-1,-1,-1,-1,-1,-1
-1,-1,-1,-1,-1,-1,-1,-1,-1,-1,-1,-1,-1,-1,-1,-1,-1,-1,-1,-1,-1,-1,-1,-1,-1,-1,-1,-1,-1,-1,-1,-1,-1,-1,-1,-1,-1,-1,-1,-1,-1,-1,-1,-1,-1,-1,-1,-1,-1,-1,-1,-1,-1,-1,-1,-1,-1,-1,-1,-1,-1,-1,-1,-1,-1,-1,-1,-1,-1,-1,-1,-1,-1,-1,-1,-1,-1,-1,-1,-1,-1,-1,-1,51,38,16,29,42,55,59,53,32,16,13,26,34,36,42,42,20,20,20,20,11,12,12,12,13,13,12,15,28,54,61,50,68,59,50,41,17,33,21,12,21,19,31,33,38,43,43,35,56,65,57,46,44,44,43,33,32,35,32,27,40,33,26,24,28,24,19,13,5,21,22,29,29,19,8,12,16,15,15,15,20,19,20,16,11,16,12,13,12,13,15,8,10,11,11,11,11,14,20,11,18,5,0,12,12,5,13,8,5,3,5,8,13,10,5,10,13,8,8,10,10,5,0,0,12,12,0,5,8,12,12,15,8,3,8,8,12,13,11,10,8,20,23,13,13,24,12,20,37,40,45,57,60,67,72,51,51,55,63,59,59,47,38,8,13,8,8,4,13,8,0,0,8,20,18,8,5,22,19,31,34,34,20,13,16,18,30,17,12,16,16,15,8,0,8,8,23,40,39,21,24,41,33,32,18,42,40,20,8,12,15,13,41,40,27,25,18,13,8,20,13,8,9,18,22,18,31,10,0,5,13,8,8,8,10,10,13,21,21,18,11,13,17,20,25,17,18,39,48,43,52,57,57,53,38,57,68,54,32,32,25,21,17,21,20,19,28,23,24,20,20,12,8,9,17,24,27,30,18,10,13,4,17,20,13,13,8,5,0,0,12,16,13,5,9,3,12,12,0,5,13,8,8,13,8,13,8,13,5,0,0,0,0,0,5,10,10,3,10,13,8,8,17,21,16,15,5,5,8,8,5,0,12,12,5,8,8,5,0,0,0,0,0,3,12,12,12,12,12,13,12,13,8,5,5,7,12,3,12,12,8,13,8,0,0,0,5,18,11,12,12,15,10,10,12,10,5,3,5,8,13,13,8,5,10,13,8,8,12,12,8,12,12,0,12,12,0,0,5,13,8,12,13,8,8,5,0,0,0,5,8,8,8,13,5,8,15,13,13,15,8,5,3,5,12,12,0,0,0,5,13,8,0,12,12,-1,-1,-1,-1,-1,-1,-1,-1,-1,-1,-1,-1,-1,-1,-1,-1,-1,-1,-1,-1,-1,-1,-1,-1,-1,-1,-1,-1,-1,-1,-1,-1,-1,-1,-1,-1
