-1,-1,-1,-1,-1,-1,-1,-1,-1,-1,-1,-1,-1,-1,-1,-1,-1,-1,-1,-1,-1,-1,-1,-1,-1,-1,-1,-1,-1,-1,-1,-1,-1,-1,-1,-1,-1,-1,-1,7,6,4,5,5,6,5,6,6,6,8,8,8,7,8,7,4,3,3,4,3,4,3,1,0,0,0,0,0,1,4,2,0,0,0,0,0,0,0,0,0,1,2,2,2,4,2,1,4,2,3,4,4,4,2,1,0,1,3,3,1,3,3,1,0,1,4,2,4,2,0,1,2,2,1,0,0,0,3,3,1,3,4,3,4,4,2,1,3,3,3,3,0,0,1,1,1,3,2,0,0,0,0,0,0,0,0,3,3,0,0,1,5,4,3,3,3,1,3,3,4,4,4,3,3,3,4,2,3,3,1,0,0,2,4,1,0,0,0,1,2,4,2,0,1,1,1,0,1,3,3,1,0,1,4,2,0,3,4,4,3,4,4,5,5,4,5,4,4,4,3,2,1,0,3,3,2,3,4,2,0,0,1,2,4,2,0,0,0,1,4,2,2,3,3,5,5,4,4,3,4,5,5,3,6,6,8,7,4,4,5,6,5,9,12,12,11,13,12,9,8,9,6,5,3,3,0,0,0,0,0,3,4,5,5,3,3,5,7,7,6,6,2,2,4,2,1,3,5,5,9,12,10,9,11,10,11,11,8,6,5,3,3,4,4,5,5,2,1,1,3,4,4,3,4,3,3,0,0,0,1,4,2,4,2,0,1,4,2,0,0,0,3,3,4,2,0,0,0,0,0,0,0,1,2,2,1,1,2,4,2,0,0,1,2,4,2,0,1,3,4,3,3,3,3,4,3,3,3,3,0,0,0,1,4,2,4,1,3,1,4,2,0,1,2,4,2,0,3,4,4,1,0,0,0,0,1,2,3,2,1,0,0,1,2,3,3,3,3,3,2,3,4,3,3,4,4,5,5,2,3,3,2,3,4,3,4,2,4,4,4,6,6,9,8,8,13,13,10,10,10,11,12,10,10,9,10,10,11,12,12,11,10,10,10,9,5,4,2,2,4,3,6,14,14,10,5,8,9,14,14,10,6,3,3,5,7,8,11,10,13,16,20,21,23,21,11,8,8,10,-1,-1,-1,-1,-1,-1,-1,-1,-1,-1,-1,-1,-1,-1,-1,-1,-1,-1,-1,-1,-1,-1,-1,-1,-1,-1,-1,-1,-1,-1,-1,-1,-1,-1,-1,-1,-1,-1,-1,-1,-1,-1,-1,-1,-1,-1,-1,-1,-1,-1,-1,-1,-1,-1,-1,-1,-1,-1,-1,-1,-1,-1,-1,-1,-1
-1,-1,-1,-1,-1,-1,-1,-1,-1,-1,-1,-1,-1,-1,-1,-1,-1,-1,-1,-1,-1,-1,-1,-1,-1,-1,-1,-1,-1,-1,-1,-1,-1,-1,-1,-1,-1,-1,-1,9,6,8,5,4,7,8,6,6,7,7,7,7,7,7,6,4,3,1,2,3,2,1,0,0,0,0,0,0,2,4,1,0,0,0,0,0,0,0,0,0,0,0,2,4,2,1,2,4,1,1,2,2,1,0,0,0,2,4,1,3,3,1,1,2,4,3,2,4,1,0,2,4,4,4,2,1,1,4,2,0,1,2,3,2,1,0,0,3,3,2,4,1,0,1,2,1,3,1,0,0,0,0,0,0,0,0,3,3,0,1,4,4,4,3,3,1,3,3,4,4,4,3,3,3,3,1,3,3,1,0,0,0,1,3,4,2,2,2,4,4,2,2,2,1,0,0,0,1,3,2,0,1,3,3,1,1,5,6,4,3,3,3,5,4,4,6,3,2,1,0,0,0,0,2,3,4,3,2,1,0,0,0,0,3,3,0,0,0,0,3,3,0,0,0,1,2,3,4,3,4,2,1,0,3,4,7,8,6,5,5,7,7,10,11,11,12,12,13,10,6,6,4,3,3,3,0,0,0,0,0,3,4,4,3,2,4,3,7,8,9,8,5,5,5,1,3,3,3,7,9,12,9,9,9,9,9,8,6,4,3,4,4,4,4,4,3,3,3,3,3,4,4,6,3,4,2,0,0,0,2,4,2,4,1,1,3,3,1,0,0,0,3,4,3,2,0,0,0,0,0,0,1,3,4,4,2,0,1,4,2,0,0,0,0,2,4,1,0,1,2,4,4,3,3,3,4,3,4,2,0,0,0,1,2,4,3,4,4,3,3,3,1,3,4,2,1,0,3,4,3,0,0,0,0,0,2,4,3,4,2,0,0,0,1,2,3,3,3,3,4,3,1,2,4,4,4,4,2,3,4,2,3,3,2,3,3,3,3,4,4,4,4,5,8,7,10,12,10,10,10,12,9,10,9,9,10,12,12,10,10,13,13,13,13,12,8,5,5,1,2,4,4,9,11,13,12,2,5,15,16,13,4,3,4,3,6,9,10,12,13,11,19,21,24,22,16,7,7,8,-1,-1,-1,-1,-1,-1,-1,-1,-1,-1,-1,-1,-1,-1,-1,-1,-1,-1,-1,-1,-1,-1,-1,-1,-1,-1,-1,-1,-1,-1,-1,-1,-1,-1,-1,-1,-1,-1,-1,-1,-1,-1,-1,-1,-1,-1,-1,-1,-1,-1,-1,-1,-1,-1,-1,-1,-1,-1,-1,-1,-1,-1,-1,-1,-1
-1,-1,-1,-1,-1,-1,-1,-1,-1,-1,-1,-1,-1,-1,-1,-1,-1,-1,-1,-1,-1,-1,-1,-1,-1,-1,-1,-1,-1,-1,-1,-1,-1,-1,-1,-1,-1,-1,6,5,3,7,7,6,10,7,6,7,7,6,6,7,8,6,4,4,3,0,0,0,0,0,0,0,0,0,0,1,4,2,0,0,0,0,0,0,0,0,0,0,0,1,4,2,0,0,2,4,2,2,3,3,2,2,1,1,2,4,4,3,1,0,2,4,2,1,4,2,0,0,3,3,1,2,4,4,2,2,2,0,0,0,0,0,0,0,0,2,4,1,4,2,0,1,1,2,4,1,0,0,0,0,0,0,0,1,4,2,1,3,4,5,4,4,3,4,3,3,4,5,3,3,3,3,2,4,3,1,0,0,0,0,0,1,2,4,3,4,2,2,4,4,4,3,1,0,0,1,3,4,3,4,3,1,2,5,4,5,6,5,4,4,4,5,3,3,1,1,2,1,1,0,0,1,1,1,0,0,0,0,0,0,0,2,4,1,0,0,0,3,3,0,0,0,0,0,0,1,1,1,0,0,0,2,5,6,7,7,5,6,7,11,12,11,11,11,12,10,8,6,5,6,5,3,3,0,0,0,0,1,4,6,4,2,1,2,5,5,8,10,6,6,6,5,3,4,4,5,7,8,10,7,8,9,10,8,7,5,5,4,4,4,4,4,4,4,3,3,3,3,3,4,5,5,3,3,2,1,0,3,3,3,3,0,2,4,1,0,0,0,0,3,3,4,2,0,0,0,1,2,3,4,3,1,3,3,0,2,4,1,0,0,0,0,1,3,3,1,1,2,3,4,4,3,3,3,3,2,1,2,2,1,0,0,1,1,1,1,4,4,3,2,4,1,0,0,1,4,4,3,2,3,3,2,1,2,4,2,4,2,0,0,1,3,4,3,3,3,3,2,1,3,4,2,3,4,3,4,3,2,1,4,2,2,4,2,4,2,4,5,5,2,4,5,9,9,9,9,10,9,10,9,8,9,9,12,11,10,10,12,13,13,12,13,13,11,8,8,2,4,6,5,2,7,14,13,9,6,12,18,17,7,3,2,5,5,9,12,14,13,11,17,18,21,22,19,9,5,8,-1,-1,-1,-1,-1,-1,-1,-1,-1,-1,-1,-1,-1,-1,-1,-1,-1,-1,-1,-1,-1,-1,-1,-1,-1,-1,-1,-1,-1,-1,-1,-1,-1,-1,-1,-1,-1,-1,-1,-1,-1,-1,-1,-1,-1,-1,-1,-1,-1,-1,-1,-1,-1,-1,-1,-1,-1,-1,-1,-1,-1,-1,-1,-1,-1
-1,-1,-1,-1,-1,-1,-1,-1,-1,-1,-1,-1,-1,-1,-1,-1,-1,-1,-1,-1,-1,-1,-1,-1,-1,-1,-1,-1,-1,-1,-1,-1,-1,-1,-1,-1,-1,-1,4,5,7,10,10,7,8,9,6,6,6,4,4,8,8,4,4,4,3,0,0,0,0,0,0,0,0,0,1,3,3,1,0,0,0,0,0,0,0,0,0,0,1,3,3,1,0,0,1,3,3,4,3,3,4,2,2,1,1,2,2,1,0,1,4,2,0,2,4,1,0,0,3,3,0,0,1,2,2,2,1,0,0,0,0,0,0,0,0,1,4,2,3,3,0,0,0,3,3,0,1,2,2,1,0,0,1,3,3,1,3,3,5,5,4,5,3,2,3,3,5,4,3,2,4,3,4,2,1,0,1,1,1,0,0,1,2,3,4,3,4,4,2,1,1,4,2,0,0,0,1,2,3,2,2,4,4,4,4,6,7,4,5,3,4,2,3,3,1,2,0,2,1,1,1,0,0,0,0,0,0,0,0,0,0,1,4,2,0,0,0,3,3,0,0,0,0,0,0,0,0,0,0,0,0,1,5,6,6,8,7,7,7,10,13,13,14,12,9,7,7,6,5,6,5,4,3,0,0,0,0,2,4,5,6,2,0,1,2,4,5,5,4,4,4,4,4,4,5,5,3,4,6,6,7,8,7,9,6,6,5,5,3,4,4,3,3,4,2,0,0,1,3,4,2,3,4,3,4,2,1,4,2,3,3,0,3,3,0,0,0,0,0,2,4,2,4,1,0,0,1,3,3,2,1,2,4,2,2,4,2,0,0,0,0,0,0,1,3,4,4,4,3,3,4,4,3,3,3,3,4,4,4,4,3,3,3,2,1,1,4,4,3,3,3,0,0,0,2,4,3,4,4,3,3,4,2,1,3,3,3,1,0,1,3,3,1,0,0,0,1,2,4,3,1,3,3,1,0,1,2,2,1,2,4,2,4,3,3,5,5,4,4,1,1,3,5,7,6,6,8,10,10,9,6,8,9,10,13,12,10,10,10,11,12,12,13,11,10,9,5,5,2,5,5,4,10,15,17,7,10,15,16,11,5,2,2,5,11,15,15,13,12,13,16,21,22,21,17,2,5,-1,-1,-1,-1,-1,-1,-1,-1,-1,-1,-1,-1,-1,-1,-1,-1,-1,-1,-1,-1,-1,-1,-1,-1,-1,-1,-1,-1,-1,-1,-1,-1,-1,-1,-1,-1,-1,-1,-1,-1,-1,-1,-1,-1,-1,-1,-1,-1,-1,-1,-1,-1,-1,-1,-1,-1,-1,-1,-1,-1,-1,-1,-1,-1,-1
-1,-1,-1,-1,-1,-1,-1,-1,-1,-1,-1,-1,-1,-1,-1,-1,-1,-1,-1,-1,-1,-1,-1,-1,-1,-1,-1,-1,-1,-1,-1,-1,-1,-1,-1,-1,-1,-1,4,4,7,7,9,8,7,5,4,4,4,4,4,8,8,4,4,4,3,0,0,0,0,0,0,0,0,1,3,3,1,0,0,0,0,0,0,0,0,0,0,1,3,3,1,0,0,0,0,1,1,1,0,0,2,2,1,1,0,0,0,0,1,3,3,1,1,4,2,0,0,0,2,4,2,1,0,0,1,1,1,0,0,0,0,0,0,0,0,0,3,3,3,3,0,0,0,3,3,1,3,4,4,2,0,1,3,3,2,5,4,5,6,6,4,1,2,4,3,4,4,4,1,3,4,4,1,0,0,1,3,3,4,2,1,1,4,2,2,2,3,1,0,0,0,2,4,1,0,0,0,1,2,4,4,3,5,4,5,7,5,4,4,4,2,1,4,2,1,1,2,1,1,2,1,0,0,0,0,0,0,0,0,0,0,0,3,3,0,0,0,2,4,3,2,1,0,0,0,0,0,0,0,0,0,0,3,4,4,9,9,7,8,10,14,15,14,12,8,5,6,4,4,4,4,4,3,1,2,2,1,3,4,3,3,1,0,2,4,6,8,7,4,4,4,4,6,6,6,4,3,3,5,5,4,4,6,6,5,5,3,4,4,2,1,0,0,2,4,3,3,4,3,1,2,4,1,1,4,2,3,3,1,4,2,0,3,3,0,0,0,0,0,1,4,2,3,4,2,1,1,3,4,2,3,4,2,2,4,2,1,0,0,0,0,0,0,0,1,2,2,1,2,3,2,2,3,4,3,3,2,1,1,2,3,3,3,4,4,4,3,4,2,4,2,0,0,0,3,3,5,5,2,0,0,3,3,1,2,2,1,1,2,3,5,2,0,0,0,0,2,4,2,1,3,3,1,1,2,3,4,3,4,2,3,3,4,4,4,5,6,5,1,0,0,1,5,6,6,5,7,10,10,8,6,6,8,12,13,10,10,13,12,12,10,10,12,12,10,10,8,8,1,4,4,4,6,16,14,7,3,12,17,16,6,1,3,4,7,12,15,14,10,13,14,18,22,24,22,7,3,8,-1,-1,-1,-1,-1,-1,-1,-1,-1,-1,-1,-1,-1,-1,-1,-1,-1,-1,-1,-1,-1,-1,-1,-1,-1,-1,-1,-1,-1,-1,-1,-1,-1,-1,-1,-1,-1,-1,-1,-1,-1,-1,-1,-1,-1,-1,-1,-1,-1,-1,-1,-1,-1,-1,-1,-1,-1,-1,-1,-1,-1,-1,-1,-1
-1,-1,-1,-1,-1,-1,-1,-1,-1,-1,-1,-1,-1,-1,-1,-1,-1,-1,-1,-1,-1,-1,-1,-1,-1,-1,-1,-1,-1,-1,-1,-1,-1,-1,-1,-1,-1,-1,3,3,5,6,6,5,6,5,3,5,6,6,6,8,8,6,4,4,3,0,0,0,0,0,0,0,1,3,3,1,0,0,0,0,0,0,0,0,0,0,1,3,3,2,3,3,3,3,3,3,3,3,2,2,3,3,1,0,0,0,0,0,2,4,1,0,2,4,1,0,0,0,1,2,4,3,2,3,3,2,2,1,1,0,0,0,0,0,0,0,3,3,3,3,0,0,0,3,3,2,4,1,2,4,2,3,3,4,5,6,6,7,5,4,1,3,4,2,3,4,5,1,0,3,4,3,0,0,1,3,3,2,2,4,4,3,3,3,3,4,3,1,0,0,0,1,3,4,2,2,2,4,4,5,6,4,6,6,6,6,6,5,3,3,3,4,3,1,0,0,0,0,1,1,1,0,0,0,0,1,2,3,3,2,2,2,4,2,0,0,0,1,2,3,4,3,1,0,0,0,0,0,0,0,0,0,2,4,5,11,11,8,10,10,14,14,14,14,8,4,5,5,4,6,4,4,3,2,4,4,2,3,4,4,4,2,2,2,4,6,10,7,8,7,7,6,9,8,6,4,3,3,3,4,4,4,5,5,3,4,4,2,1,0,0,0,0,1,2,3,3,1,3,1,2,4,3,4,3,3,3,1,3,3,1,0,2,4,1,0,0,0,0,0,2,4,1,2,4,3,1,1,2,4,3,2,1,4,2,0,0,0,0,0,0,1,2,3,2,2,2,4,4,3,4,4,4,3,4,3,3,3,3,3,3,2,1,1,3,4,5,4,4,3,1,0,0,1,4,3,5,5,1,0,1,4,2,2,4,2,0,2,4,6,5,2,2,2,1,0,2,4,1,1,3,2,0,2,4,3,3,3,3,4,3,3,4,4,4,4,4,3,1,2,3,3,4,4,4,3,6,8,10,7,6,7,8,9,13,12,11,13,13,12,12,12,14,14,12,10,10,9,4,1,4,4,5,10,13,12,10,13,21,20,13,6,3,3,6,13,16,15,10,10,13,17,23,23,21,11,7,9,-1,-1,-1,-1,-1,-1,-1,-1,-1,-1,-1,-1,-1,-1,-1,-1,-1,-1,-1,-1,-1,-1,-1,-1,-1,-1,-1,-1,-1,-1,-1,-1,-1,-1,-1,-1,-1,-1,-1,-1,-1,-1,-1,-1,-1,-1,-1,-1,-1,-1,-1,-1,-1,-1,-1,-1,-1,-1,-1,-1,-1,-1,-1,-1
-1,-1,-1,-1,-1,-1,-1,-1,-1,-1,-1,-1,-1,-1,-1,-1,-1,-1,-1,-1,-1,-1,-1,-1,-1,-1,-1,-1,-1,-1,-1,-1,-1,-1,-1,-1,-1,-1,2,4,3,6,5,2,4,3,4,5,7,6,8,9,8,7,7,4,2,0,0,0,0,0,0,0,2,4,1,0,0,0,0,0,0,0,0,0,0,1,3,3,3,4,3,3,3,3,3,3,3,3,4,3,3,1,0,0,0,0,0,0,3,3,0,0,3,3,0,0,0,0,0,0,2,3,4,3,3,4,3,3,2,0,0,0,0,0,0,0,3,3,2,4,1,0,0,3,3,3,3,0,1,3,3,3,4,6,6,7,6,6,5,3,4,3,1,3,3,3,3,0,0,3,4,4,1,1,3,3,2,3,3,3,4,4,4,3,1,1,4,2,0,0,0,0,1,2,4,3,4,3,5,5,7,7,8,6,6,6,5,4,4,3,3,2,1,0,0,0,0,0,0,0,0,0,0,1,2,4,4,3,3,4,3,4,2,1,2,2,1,0,0,0,2,3,1,0,0,0,0,0,0,0,0,0,1,7,8,9,10,10,10,10,14,13,14,12,6,4,4,4,5,7,6,4,2,3,3,3,3,4,4,4,4,4,4,4,4,8,12,9,10,9,9,9,11,9,5,4,3,3,4,4,4,4,4,4,4,2,1,0,0,0,0,0,0,0,0,0,2,4,4,4,2,2,3,2,3,3,2,4,3,1,0,0,1,3,3,1,0,1,1,1,1,4,2,0,1,3,4,3,3,3,4,3,4,3,1,0,0,0,0,0,0,1,3,3,4,3,4,2,1,2,3,4,4,3,4,4,3,3,3,3,3,4,4,4,4,4,5,5,2,1,0,0,1,3,3,4,4,3,0,0,2,4,1,2,4,2,0,2,4,3,6,5,5,4,2,0,1,4,2,1,4,2,0,3,3,4,5,4,5,4,2,2,3,4,4,4,5,5,2,4,3,3,2,3,4,4,5,8,8,6,6,6,9,12,12,11,12,12,13,14,11,10,12,11,11,12,13,13,10,2,2,4,4,3,8,13,13,8,22,21,14,7,1,1,3,10,14,15,12,13,10,15,17,20,18,14,7,7,-1,-1,-1,-1,-1,-1,-1,-1,-1,-1,-1,-1,-1,-1,-1,-1,-1,-1,-1,-1,-1,-1,-1,-1,-1,-1,-1,-1,-1,-1,-1,-1,-1,-1,-1,-1,-1,-1,-1,-1,-1,-1,-1,-1,-1,-1,-1,-1,-1,-1,-1,-1,-1,-1,-1,-1,-1,-1,-1,-1,-1,-1,-1,-1
-1,-1,-1,-1,-1,-1,-1,-1,-1,-1,-1,-1,-1,-1,-1,-1,-1,-1,-1,-1,-1,-1,-1,-1,-1,-1,-1,-1,-1,-1,-1,-1,-1,-1,-1,-1,-1,-1,3,6,3,6,6,4,5,5,3,6,7,7,7,9,9,8,8,4,1,0,0,0,0,0,0,1,4,2,0,0,0,0,0,0,0,0,0,0,0,2,4,2,4,1,0,0,0,0,1,2,3,3,3,3,1,0,0,0,0,0,0,0,3,3,0,0,3,3,0,0,0,0,0,0,1,1,1,0,0,1,1,3,3,0,0,0,0,0,0,0,3,3,1,3,3,1,0,3,3,3,3,0,0,1,3,5,6,6,7,7,4,4,4,3,2,2,4,3,1,4,2,0,0,3,3,4,2,2,4,2,4,3,4,4,4,4,4,4,5,2,2,4,1,0,0,0,0,0,1,3,5,5,6,8,8,8,7,6,6,6,5,3,1,0,0,0,1,1,1,0,0,1,1,1,0,1,2,4,4,2,1,0,1,2,4,3,3,4,4,4,2,0,0,0,2,4,1,1,2,2,1,0,0,0,0,0,1,7,9,10,12,12,11,10,14,14,12,12,6,4,5,4,6,7,5,3,1,2,4,4,3,4,5,6,6,3,3,4,6,9,10,12,10,9,7,9,9,8,5,3,5,4,4,4,4,4,4,4,2,1,0,0,0,0,0,0,0,0,0,1,4,2,1,2,4,4,3,4,3,3,4,2,1,0,0,0,0,1,3,4,3,4,3,3,2,4,2,0,0,1,2,3,3,3,3,3,2,1,0,0,0,0,0,0,0,1,4,2,1,2,2,3,5,5,6,7,8,7,4,4,3,1,0,1,2,4,6,7,6,4,4,3,2,1,1,1,2,4,2,4,3,3,0,0,3,3,0,1,1,1,1,1,4,2,7,8,4,4,3,0,0,3,3,0,2,4,1,3,4,4,6,3,6,4,3,2,4,4,4,4,5,5,4,3,2,3,2,2,4,4,3,6,6,6,6,3,5,9,10,12,9,12,13,14,13,12,10,10,12,13,13,13,10,8,4,2,3,3,8,12,14,10,16,25,21,8,0,1,4,8,10,14,16,16,13,16,17,17,17,17,14,8,7,-1,-1,-1,-1,-1,-1,-1,-1,-1,-1,-1,-1,-1,-1,-1,-1,-1,-1,-1,-1,-1,-1,-1,-1,-1,-1,-1,-1,-1,-1,-1,-1,-1,-1,-1,-1,-1,-1,-1,-1,-1,-1,-1,-1,-1,-1,-1,-1,-1,-1,-1,-1,-1,-1,-1,-1,-1,-1,-1,-1,-1,-1,-1
-1,-1,-1,-1,-1,-1,-1,-1,-1,-1,-1,-1,-1,-1,-1,-1,-1,-1,-1,-1,-1,-1,-1,-1,-1,-1,-1,-1,-1,-1,-1,-1,-1,-1,-1,-1,-1,-1,13,15,12,13,12,8,7,5,4,4,6,8,8,12,9,8,8,3,0,0,0,0,0,0,0,1,3,2,0,0,0,0,0,0,0,0,0,0,1,4,2,4,2,1,1,0,0,0,2,4,3,3,3,4,4,2,1,0,0,0,0,0,3,3,0,0,3,3,0,0,0,0,0,0,0,0,0,0,0,0,0,2,4,1,0,0,0,0,0,0,3,3,0,1,4,2,0,3,3,3,3,1,2,5,5,9,9,8,5,5,4,2,1,2,4,4,3,3,4,3,1,0,1,4,2,3,3,3,3,4,2,3,4,3,4,4,4,6,6,5,5,4,5,2,1,0,0,1,4,5,6,6,6,7,9,6,4,4,6,5,4,3,2,0,0,1,3,3,2,0,1,3,3,4,3,4,4,2,1,0,0,1,3,4,3,3,3,2,1,2,4,1,0,1,4,2,1,3,4,4,3,1,0,0,0,1,3,6,9,13,12,13,12,10,14,14,11,10,6,5,4,4,6,7,4,2,1,1,2,3,6,5,6,6,6,6,6,7,9,10,12,10,10,9,6,6,6,5,5,5,5,5,3,4,4,3,3,3,4,2,0,0,0,0,0,0,0,0,0,1,3,2,0,0,1,2,3,2,2,4,1,0,0,0,0,1,2,2,1,2,3,2,2,3,3,3,1,0,0,0,0,0,0,0,0,0,0,0,0,0,0,0,0,0,0,1,4,2,1,3,4,4,5,5,5,7,8,7,5,4,4,2,1,3,4,5,8,8,7,6,4,3,4,3,4,2,2,4,3,3,4,2,2,2,2,4,2,2,2,4,3,3,2,4,7,8,4,4,2,0,0,3,3,0,1,4,2,3,3,6,6,1,3,3,3,3,3,4,3,3,4,4,4,4,3,4,3,1,3,4,5,6,7,6,6,5,1,8,8,9,9,10,10,11,13,14,12,10,10,10,10,10,10,9,5,1,1,3,4,10,13,14,14,26,24,7,1,3,3,3,8,14,16,14,16,16,18,19,18,20,21,13,7,-1,-1,-1,-1,-1,-1,-1,-1,-1,-1,-1,-1,-1,-1,-1,-1,-1,-1,-1,-1,-1,-1,-1,-1,-1,-1,-1,-1,-1,-1,-1,-1,-1,-1,-1,-1,-1,-1,-1,-1,-1,-1,-1,-1,-1,-1,-1,-1,-1,-1,-1,-1,-1,-1,-1,-1,-1,-1,-1,-1,-1,-1,-1
-1,-1,-1,-1,-1,-1,-1,-1,-1,-1,-1,-1,-1,-1,-1,-1,-1,-1,-1,-1,-1,-1,-1,-1,-1,-1,-1,-1,-1,-1,-1,-1,-1,-1,-1,-1,-1,-1,18,16,15,15,11,8,7,5,4,4,4,7,9,10,11,8,8,3,0,0,0,0,0,0,0,1,4,2,0,0,0,0,0,0,0,0,0,0,2,4,2,4,2,2,1,0,0,1,4,2,0,0,0,1,2,4,3,1,0,0,0,0,3,3,0,0,2,4,2,1,0,0,0,0,0,0,0,0,0,0,0,1,3,3,1,0,0,0,0,0,2,4,1,0,2,4,1,3,3,3,3,3,4,5,7,8,9,9,4,4,3,4,4,4,3,5,5,4,4,3,3,3,4,3,1,4,2,4,3,4,3,3,1,2,3,4,4,5,4,5,4,5,4,4,3,1,1,4,6,6,6,6,6,7,5,4,3,3,4,5,2,3,2,1,2,4,3,3,2,0,2,4,2,2,3,2,1,0,0,0,0,1,3,2,0,0,0,0,0,1,3,3,2,3,3,1,3,3,1,1,4,2,0,0,1,3,3,8,10,12,13,12,13,11,14,14,10,9,6,5,5,5,7,6,2,2,2,2,5,5,7,7,6,6,6,6,7,8,10,10,11,11,8,6,7,7,6,6,6,6,4,4,4,2,1,0,0,0,3,3,0,0,0,0,0,0,0,0,0,1,3,4,2,2,2,2,1,0,2,4,3,3,3,2,1,2,4,4,2,0,0,0,0,1,1,1,0,0,0,0,0,0,0,0,0,0,0,0,0,0,0,0,0,0,0,2,4,1,4,5,6,4,4,4,3,3,3,3,4,4,6,8,7,6,6,7,7,5,6,4,4,3,3,4,4,2,2,3,4,4,4,3,4,4,4,3,4,3,4,2,3,3,3,2,3,5,4,2,1,0,0,3,3,0,0,3,3,3,3,5,3,3,3,3,1,2,3,3,3,3,5,5,4,3,3,3,3,1,1,5,5,6,5,6,6,6,4,4,6,9,8,10,9,8,11,12,11,10,10,10,10,10,10,9,5,4,1,2,4,5,10,12,10,20,24,9,4,4,1,1,6,10,11,12,15,16,19,21,19,23,24,20,10,-1,-1,-1,-1,-1,-1,-1,-1,-1,-1,-1,-1,-1,-1,-1,-1,-1,-1,-1,-1,-1,-1,-1,-1,-1,-1,-1,-1,-1,-1,-1,-1,-1,-1,-1,-1,-1,-1,-1,-1,-1,-1,-1,-1,-1,-1,-1,-1,-1,-1,-1,-1,-1,-1,-1,-1,-1,-1,-1,-1,-1,-1,-1
-1,-1,-1,-1,-1,-1,-1,-1,-1,-1,-1,-1,-1,-1,-1,-1,-1,-1,-1,-1,-1,-1,-1,-1,-1,-1,-1,-1,-1,-1,-1,-1,-1,-1,-1,-1,-1,17,16,15,14,15,13,10,8,7,4,4,4,6,9,11,9,9,8,3,0,0,1,2,2,1,0,0,2,4,1,0,0,0,0,0,0,0,0,0,3,3,3,3,1,1,1,0,0,2,4,1,0,0,0,0,0,1,4,2,0,0,0,1,4,2,0,0,1,2,4,2,0,0,0,0,0,1,2,3,2,1,0,0,1,4,2,0,0,0,0,0,1,4,2,0,1,4,2,3,3,3,4,4,4,6,6,6,6,6,4,4,3,4,4,5,5,5,5,4,4,4,4,4,4,3,5,4,4,3,3,4,3,2,2,4,3,3,4,4,4,4,3,3,3,3,4,2,2,5,6,6,5,6,5,5,5,2,0,1,3,2,3,3,1,3,4,2,2,4,1,0,3,3,0,0,0,0,0,0,0,0,0,1,3,4,3,2,1,0,0,0,1,3,3,3,1,1,3,2,0,1,4,2,0,0,2,4,4,9,10,11,13,12,12,12,12,12,8,7,4,4,4,5,6,5,2,3,4,4,5,7,6,5,6,6,6,7,7,7,7,9,9,8,6,7,7,7,7,6,5,5,3,2,1,0,0,0,0,0,3,3,0,1,2,3,3,3,3,2,1,0,1,2,4,3,4,4,4,3,3,3,3,3,3,4,4,6,3,2,4,1,0,1,2,2,1,0,1,2,3,2,1,0,0,0,0,0,0,0,0,0,0,0,0,0,0,3,3,6,8,7,7,6,4,4,5,4,3,3,4,5,8,9,9,8,7,7,6,4,4,5,5,4,5,6,4,3,5,4,6,6,5,4,3,2,2,4,3,3,2,4,3,3,4,2,1,2,4,3,1,0,0,2,4,1,0,3,3,4,3,3,2,3,3,2,1,3,3,2,4,2,5,5,2,3,2,2,1,0,1,4,4,4,4,5,6,6,4,3,7,7,9,11,8,8,9,12,12,10,10,10,10,10,11,12,8,8,2,4,4,3,5,8,5,12,20,17,10,4,2,3,5,8,10,10,12,15,18,19,20,22,24,22,17,-1,-1,-1,-1,-1,-1,-1,-1,-1,-1,-1,-1,-1,-1,-1,-1,-1,-1,-1,-1,-1,-1,-1,-1,-1,-1,-1,-1,-1,-1,-1,-1,-1,-1,-1,-1,-1,-1,-1,-1,-1,-1,-1,-1,-1,-1,-1,-1,-1,-1,-1,-1,-1,-1,-1,-1,-1,-1,-1,-1,-1,-1,-1
-1,-1,-1,-1,-1,-1,-1,-1,-1,-1,-1,-1,-1,-1,-1,-1,-1,-1,-1,-1,-1,-1,-1,-1,-1,-1,-1,-1,-1,-1,-1,-1,-1,-1,-1,-1,-1,9,9,9,9,12,15,12,9,9,4,4,4,4,8,9,9,11,10,6,3,3,4,4,4,3,1,0,1,4,2,0,0,0,0,0,0,0,0,0,3,3,3,3,0,0,1,2,2,3,3,0,0,1,2,3,2,1,3,3,0,0,0,1,3,2,0,0,0,0,3,3,0,0,0,1,2,4,4,3,4,2,0,0,0,3,3,0,0,0,0,0,0,3,3,0,0,3,3,3,3,5,6,5,6,6,6,6,6,5,3,3,3,3,3,5,6,6,6,4,4,4,4,4,4,4,6,6,3,1,3,3,4,2,3,3,0,0,1,2,6,4,3,3,3,4,4,3,5,6,6,5,4,5,2,2,3,1,0,1,3,3,3,1,2,4,1,0,3,3,0,0,3,3,0,0,0,0,0,0,0,0,0,0,1,2,3,4,3,1,0,0,0,1,1,1,0,1,3,4,3,4,3,1,0,1,4,3,5,7,10,11,12,13,10,11,13,11,7,6,6,5,4,4,3,3,3,4,2,3,4,5,4,6,6,6,6,6,7,7,6,6,6,6,6,6,7,6,5,5,2,1,0,0,0,0,0,0,0,0,2,4,3,4,4,3,3,3,3,4,4,2,1,0,1,3,2,1,2,3,3,4,4,3,3,3,4,5,5,2,3,4,3,4,4,4,4,3,4,4,3,4,3,1,0,0,1,2,2,2,2,3,2,1,0,0,1,4,5,6,10,8,6,4,6,7,8,6,4,7,8,8,10,11,13,13,12,11,10,12,10,8,9,6,6,7,5,7,7,6,6,6,6,5,3,4,3,1,3,3,4,2,2,3,4,5,1,0,1,4,2,0,0,1,4,2,0,3,4,3,2,3,3,1,1,2,5,4,2,4,2,5,5,3,2,2,4,3,1,0,2,4,3,3,3,4,4,4,3,5,8,7,8,8,9,8,12,15,12,11,10,10,10,10,12,10,10,12,7,6,5,4,1,5,7,9,22,21,15,8,4,3,2,4,8,10,10,11,15,16,19,21,21,25,21,14,-1,-1,-1,-1,-1,-1,-1,-1,-1,-1,-1,-1,-1,-1,-1,-1,-1,-1,-1,-1,-1,-1,-1,-1,-1,-1,-1,-1,-1,-1,-1,-1,-1,-1,-1,-1,-1,-1,-1,-1,-1,-1,-1,-1,-1,-1,-1,-1,-1,-1,-1,-1,-1,-1,-1,-1,-1,-1,-1,-1,-1,-1
-1,-1,-1,-1,-1,-1,-1,-1,-1,-1,-1,-1,-1,-1,-1,-1,-1,-1,-1,-1,-1,-1,-1,-1,-1,-1,-1,-1,-1,-1,-1,-1,-1,-1,-1,-1,-1,7,8,7,6,10,14,11,12,11,6,4,5,6,7,9,9,10,8,5,3,3,2,1,1,4,2,0,0,2,4,1,0,0,0,0,0,0,0,0,3,3,3,3,0,1,1,2,2,3,2,0,0,2,4,3,4,4,4,2,0,0,0,1,4,2,0,0,0,0,3,3,0,0,1,3,4,2,1,1,4,2,0,0,0,3,3,0,0,0,0,0,1,4,2,0,1,4,2,5,4,4,6,6,6,7,6,6,4,2,3,3,3,5,6,5,5,5,6,5,3,3,3,4,4,4,5,5,4,3,2,4,3,3,3,3,0,0,0,0,2,4,3,3,4,4,4,4,5,6,6,6,5,2,0,2,4,1,0,0,1,1,1,0,3,3,0,0,3,3,0,0,3,3,1,2,3,2,1,0,0,0,0,0,0,0,0,1,3,4,2,1,0,0,0,0,0,0,1,2,3,2,1,1,2,5,4,6,7,7,9,12,12,10,9,13,14,13,10,7,6,4,4,4,3,1,1,1,2,4,4,3,5,6,7,6,6,6,6,6,7,7,6,6,6,6,5,5,4,3,3,2,1,0,0,0,0,1,2,3,3,4,4,4,3,3,3,3,3,2,2,4,2,1,3,4,4,2,1,2,3,2,2,3,3,3,3,2,3,2,1,2,3,2,1,1,2,3,2,1,0,1,4,2,0,0,2,4,4,3,4,3,4,4,3,3,4,3,8,7,8,6,6,7,9,9,9,8,8,9,10,11,14,14,14,14,15,15,14,14,14,11,10,8,8,8,8,8,7,6,6,6,5,3,3,2,3,4,3,4,3,2,1,1,5,4,4,3,3,4,2,1,1,1,4,2,1,4,2,3,4,2,4,2,4,5,7,6,5,3,2,5,5,3,3,3,2,4,2,0,3,3,3,4,4,4,4,4,4,5,6,7,8,7,5,7,10,14,14,13,10,9,10,9,9,10,12,11,8,7,6,2,3,5,9,12,17,24,18,11,5,0,0,3,6,9,10,9,14,17,18,18,17,23,22,17,-1,-1,-1,-1,-1,-1,-1,-1,-1,-1,-1,-1,-1,-1,-1,-1,-1,-1,-1,-1,-1,-1,-1,-1,-1,-1,-1,-1,-1,-1,-1,-1,-1,-1,-1,-1,-1,-1,-1,-1,-1,-1,-1,-1,-1,-1,-1,-1,-1,-1,-1,-1,-1,-1,-1,-1,-1,-1,-1,-1,-1,-1
-1,-1,-1,-1,-1,-1,-1,-1,-1,-1,-1,-1,-1,-1,-1,-1,-1,-1,-1,-1,-1,-1,-1,-1,-1,-1,-1,-1,-1,-1,-1,-1,-1,-1,-1,-1,-1,8,9,9,7,10,13,11,10,9,7,5,5,6,9,8,10,10,7,6,4,1,0,0,1,4,2,0,0,2,3,1,0,0,0,0,0,0,0,0,3,3,2,4,1,1,2,2,3,2,1,1,1,2,4,1,1,2,2,1,0,0,0,0,3,3,0,0,0,0,3,3,0,1,3,3,1,0,1,3,3,1,0,0,1,4,2,0,0,0,0,0,2,4,1,2,5,4,5,6,5,6,6,6,7,7,7,4,4,5,4,4,4,6,7,4,5,4,3,3,3,3,4,4,3,3,2,1,3,3,1,4,4,3,3,3,0,1,1,1,1,4,2,4,4,6,6,6,6,5,4,3,4,2,0,3,3,0,0,0,0,0,0,0,3,3,0,0,3,3,0,0,3,3,1,3,3,4,4,2,1,1,1,1,0,0,0,0,1,2,4,3,1,0,0,0,0,0,0,0,0,0,1,4,5,6,5,4,6,7,8,10,10,10,9,13,14,13,9,8,6,3,4,3,3,0,0,1,4,3,4,5,8,9,7,6,6,6,6,7,7,6,6,6,6,6,5,4,5,3,3,4,3,1,0,0,1,3,4,3,4,4,4,4,4,3,3,3,3,4,3,2,4,4,3,1,2,4,4,4,3,4,3,1,0,0,0,2,4,1,0,0,0,0,0,1,2,2,2,1,1,0,3,3,0,0,3,3,1,2,2,1,1,2,3,4,6,8,11,9,11,10,11,10,12,10,9,9,9,10,13,14,16,15,16,17,17,16,15,14,15,14,13,12,13,10,8,8,5,4,6,6,6,4,4,4,4,4,4,4,4,4,3,1,2,4,2,3,3,3,4,3,4,4,3,2,4,3,1,1,2,4,4,4,5,7,7,7,5,1,3,3,3,3,4,3,3,4,3,0,3,3,3,4,4,4,4,4,4,4,4,6,7,7,3,6,10,13,13,15,12,10,10,10,10,9,9,10,10,8,6,2,6,6,10,13,17,21,18,10,6,0,1,4,4,7,8,7,10,13,16,16,19,21,23,21,-1,-1,-1,-1,-1,-1,-1,-1,-1,-1,-1,-1,-1,-1,-1,-1,-1,-1,-1,-1,-1,-1,-1,-1,-1,-1,-1,-1,-1,-1,-1,-1,-1,-1,-1,-1,-1,-1,-1,-1,-1,-1,-1,-1,-1,-1,-1,-1,-1,-1,-1,-1,-1,-1,-1,-1,-1,-1,-1,-1,-1,-1
-1,-1,-1,-1,-1,-1,-1,-1,-1,-1,-1,-1,-1,-1,-1,-1,-1,-1,-1,-1,-1,-1,-1,-1,-1,-1,-1,-1,-1,-1,-1,-1,-1,-1,-1,-1,-1,12,10,9,9,11,12,11,9,7,6,5,4,4,6,9,10,7,6,6,4,3,1,0,1,3,2,1,2,3,3,1,0,0,1,2,2,1,0,0,3,3,1,4,2,1,1,1,3,3,1,3,3,4,4,5,3,2,1,0,0,0,0,0,3,3,0,0,0,0,2,4,1,2,4,1,0,0,1,3,2,0,0,1,3,3,1,0,0,0,0,1,4,2,3,4,4,5,5,6,5,5,6,6,7,7,6,3,4,6,3,4,4,6,6,4,5,5,4,4,4,4,3,1,0,0,1,3,4,2,1,4,4,3,3,3,1,3,3,3,1,3,3,3,6,7,7,7,6,4,4,2,4,2,1,5,3,3,3,3,2,1,0,0,2,4,3,3,4,2,0,0,3,3,1,3,4,2,2,4,4,4,3,3,1,0,0,0,0,0,1,3,4,2,1,0,1,1,1,1,2,3,4,4,7,6,3,3,6,7,8,8,12,10,9,13,14,13,9,6,5,3,4,2,4,1,1,3,3,5,5,8,9,9,8,6,6,6,6,6,6,6,6,5,6,5,3,3,1,0,0,1,4,2,0,1,3,3,1,3,4,3,3,3,4,3,2,3,3,2,3,3,2,2,1,0,1,2,2,1,0,1,3,3,1,0,0,3,3,0,0,0,0,0,1,3,4,4,3,3,3,1,4,2,1,2,4,2,1,3,3,4,3,5,6,6,8,10,12,14,14,13,12,13,13,13,13,13,13,14,14,15,16,15,18,17,16,15,14,13,13,14,14,13,13,10,9,8,7,7,7,5,5,4,4,3,2,3,4,4,5,4,3,4,2,3,4,3,4,4,2,3,4,4,4,4,2,1,2,2,2,4,6,8,8,6,6,6,5,2,3,3,1,1,1,2,4,3,3,1,4,2,5,5,4,4,4,4,4,4,4,4,4,4,4,4,7,9,11,12,11,10,10,10,10,9,9,10,10,10,9,6,8,6,4,8,11,11,13,14,11,4,2,3,2,6,7,10,11,14,14,14,17,19,23,21,-1,-1,-1,-1,-1,-1,-1,-1,-1,-1,-1,-1,-1,-1,-1,-1,-1,-1,-1,-1,-1,-1,-1,-1,-1,-1,-1,-1,-1,-1,-1,-1,-1,-1,-1,-1,-1,-1,-1,-1,-1,-1,-1,-1,-1,-1,-1,-1,-1,-1,-1,-1,-1,-1,-1,-1,-1,-1,-1,-1,-1,-1
-1,-1,-1,-1,-1,-1,-1,-1,-1,-1,-1,-1,-1,-1,-1,-1,-1,-1,-1,-1,-1,-1,-1,-1,-1,-1,-1,-1,-1,-1,-1,-1,-1,-1,-1,-1,-1,12,13,11,10,9,8,8,8,6,5,4,4,4,4,8,8,8,7,4,4,4,2,0,1,3,3,3,3,3,1,0,0,1,3,4,4,3,1,0,3,3,0,3,3,0,0,0,3,3,2,4,2,3,6,5,3,4,2,0,0,0,0,1,4,2,0,0,0,0,1,4,2,3,3,0,0,0,1,4,2,0,0,2,4,1,0,0,0,0,0,2,4,2,4,3,3,4,4,4,4,6,6,6,6,5,6,4,3,3,3,4,4,6,6,4,4,4,4,4,4,3,4,2,0,1,3,3,2,1,2,4,2,4,2,4,2,3,2,3,3,2,4,3,7,8,8,8,5,5,4,4,3,2,5,4,5,3,3,3,4,3,1,0,1,2,3,3,2,1,0,0,2,4,1,1,2,4,2,1,2,2,2,4,2,0,1,2,2,1,0,1,3,3,2,2,5,4,5,4,4,3,2,3,4,3,2,3,6,7,7,7,9,10,9,13,13,12,11,6,4,4,4,2,3,4,4,3,4,6,6,9,10,8,6,6,6,6,6,6,5,3,5,3,4,4,4,1,0,0,0,1,4,2,0,2,4,1,2,4,1,0,0,0,2,3,4,3,2,4,2,4,2,0,1,2,3,3,3,3,3,3,2,3,3,1,0,3,3,0,0,0,1,2,4,3,1,1,2,2,3,4,5,2,3,4,2,2,5,4,3,4,6,8,8,11,12,15,17,17,16,15,16,18,16,15,14,14,15,16,15,14,15,15,15,14,14,14,14,14,14,15,15,13,14,14,12,12,11,10,7,6,5,3,5,6,7,7,4,4,6,6,4,2,4,3,2,3,2,1,2,4,3,4,4,3,3,4,4,4,3,3,6,8,10,6,4,4,4,3,3,3,1,2,3,4,2,4,2,3,3,3,4,5,3,4,4,4,3,4,4,4,3,3,4,4,6,8,10,10,10,10,9,9,10,9,9,10,10,10,9,5,3,5,1,4,3,4,9,14,13,7,5,5,5,6,6,11,12,11,14,13,16,22,24,23,16,-1,-1,-1,-1,-1,-1,-1,-1,-1,-1,-1,-1,-1,-1,-1,-1,-1,-1,-1,-1,-1,-1,-1,-1,-1,-1,-1,-1,-1,-1,-1,-1,-1,-1,-1,-1,-1,-1,-1,-1,-1,-1,-1,-1,-1,-1,-1,-1,-1,-1,-1,-1,-1,-1,-1,-1,-1,-1,-1,-1,-1
-1,-1,-1,-1,-1,-1,-1,-1,-1,-1,-1,-1,-1,-1,-1,-1,-1,-1,-1,-1,-1,-1,-1,-1,-1,-1,-1,-1,-1,-1,-1,-1,-1,-1,-1,-1,-1,11,13,14,9,7,7,8,7,7,5,4,4,4,6,8,7,8,8,3,4,3,4,1,0,1,1,2,1,1,0,1,2,4,3,1,1,4,2,0,3,3,2,4,2,2,2,1,3,3,3,3,2,4,6,5,2,3,3,0,0,0,0,1,3,2,0,0,0,0,0,2,4,4,2,0,0,0,0,3,3,0,0,3,3,0,0,0,0,0,1,4,2,5,4,3,4,4,4,4,6,6,5,6,5,4,4,3,3,4,4,3,4,4,5,4,4,4,4,4,4,3,3,3,1,4,4,4,3,3,3,3,1,3,3,4,3,3,1,1,4,2,4,4,7,9,10,10,6,4,5,3,4,4,4,4,2,3,2,1,1,4,2,0,0,0,0,1,2,3,3,3,2,4,2,0,0,3,3,0,0,0,0,3,3,1,3,4,4,4,3,3,4,3,4,5,5,6,5,4,3,3,3,4,4,3,3,3,6,7,6,10,11,11,11,13,11,10,9,7,5,4,4,3,1,2,2,2,5,6,7,8,9,7,6,6,6,5,6,5,1,3,3,4,4,4,4,1,1,2,3,4,3,1,0,3,3,0,3,3,0,0,0,0,1,1,2,4,4,2,1,3,3,1,3,4,3,3,4,4,4,4,4,3,3,3,1,2,4,1,1,2,4,4,2,1,2,4,3,3,1,5,5,3,4,1,4,5,6,6,4,6,8,10,11,14,14,15,17,16,16,15,19,19,19,16,15,14,15,16,18,17,15,16,15,14,14,14,14,15,15,17,17,17,16,15,15,14,14,13,13,10,7,7,7,7,7,7,6,4,6,6,4,3,1,4,2,0,0,0,3,3,4,6,9,12,10,8,4,2,3,3,5,7,8,6,4,4,4,3,3,3,3,4,4,4,5,4,4,3,4,4,4,2,4,4,4,4,3,4,4,4,4,4,2,5,6,5,8,10,10,10,10,9,9,9,9,10,10,10,9,6,4,3,3,2,6,8,13,17,17,12,7,4,3,5,6,8,11,13,13,13,13,22,25,22,15,-1,-1,-1,-1,-1,-1,-1,-1,-1,-1,-1,-1,-1,-1,-1,-1,-1,-1,-1,-1,-1,-1,-1,-1,-1,-1,-1,-1,-1,-1,-1,-1,-1,-1,-1,-1,-1,-1,-1,-1,-1,-1,-1,-1,-1,-1,-1,-1,-1,-1,-1,-1,-1,-1,-1,-1,-1,-1,-1,-1,-1
-1,-1,-1,-1,-1,-1,-1,-1,-1,-1,-1,-1,-1,-1,-1,-1,-1,-1,-1,-1,-1,-1,-1,-1,-1,-1,-1,-1,-1,-1,-1,-1,-1,-1,-1,-1,-1,9,10,11,4,5,6,5,5,6,4,4,5,6,7,7,6,8,7,4,3,3,3,3,1,0,0,0,0,1,2,4,4,2,1,0,0,2,4,3,4,3,4,2,3,4,4,3,3,3,3,3,2,4,4,3,4,2,4,3,3,3,2,2,3,1,0,0,0,0,0,1,2,2,1,0,0,0,0,3,3,0,0,2,4,2,1,0,0,0,2,4,2,5,5,2,5,5,4,4,5,5,4,4,4,3,3,4,3,4,4,4,3,3,2,4,3,3,2,2,3,5,6,3,5,4,5,3,3,3,4,5,1,1,4,4,4,4,1,1,4,2,3,4,6,11,12,10,6,5,3,4,2,3,3,3,4,3,4,2,0,2,4,1,0,0,0,2,4,3,3,3,4,3,4,1,0,3,3,0,0,0,0,2,4,4,3,1,1,2,3,3,2,4,4,5,3,3,4,4,3,3,3,2,5,5,5,8,10,10,9,12,13,11,10,11,11,9,8,7,6,5,3,4,1,0,1,4,6,7,7,6,7,7,6,6,5,3,4,4,2,3,4,4,3,3,3,4,4,4,3,2,1,0,0,3,3,0,3,3,0,0,0,1,2,4,4,2,1,1,0,3,3,3,3,1,0,2,4,3,3,4,3,3,2,3,3,1,3,4,4,4,2,1,0,2,4,2,2,4,2,3,4,4,3,4,6,6,6,6,8,12,14,14,13,15,14,13,13,13,16,19,18,17,16,15,14,15,18,18,19,19,17,16,15,13,13,12,10,15,15,16,16,17,16,16,15,14,15,15,15,12,13,12,8,7,6,4,3,4,3,5,6,4,4,2,4,2,2,2,6,7,10,14,14,14,13,10,8,5,5,3,2,5,7,5,3,2,2,4,3,4,4,3,4,3,4,5,3,4,4,6,2,2,4,4,3,5,5,4,6,4,3,4,2,5,7,7,5,8,10,10,10,10,10,9,9,10,10,10,9,6,6,3,4,2,6,12,15,18,18,15,12,4,3,5,6,10,12,11,13,13,13,20,26,26,18,-1,-1,-1,-1,-1,-1,-1,-1,-1,-1,-1,-1,-1,-1,-1,-1,-1,-1,-1,-1,-1,-1,-1,-1,-1,-1,-1,-1,-1,-1,-1,-1,-1,-1,-1,-1,-1,-1,-1,-1,-1,-1,-1,-1,-1,-1,-1,-1,-1,-1,-1,-1,-1,-1,-1,-1,-1,-1,-1,-1,-1
-1,-1,-1,-1,-1,-1,-1,-1,-1,-1,-1,-1,-1,-1,-1,-1,-1,-1,-1,-1,-1,-1,-1,-1,-1,-1,-1,-1,-1,-1,-1,-1,-1,-1,-1,-1,7,11,10,10,8,5,3,4,3,4,4,4,5,6,6,7,7,6,4,3,4,3,1,3,4,3,3,3,3,4,4,2,1,0,0,0,0,1,2,3,2,4,2,2,4,1,1,3,3,2,2,4,1,2,2,1,4,2,2,3,3,3,4,3,3,1,0,0,0,0,0,0,0,0,0,0,0,0,0,3,3,0,0,1,2,4,3,1,0,1,4,2,4,4,3,4,4,4,5,5,4,3,4,3,3,4,2,4,3,5,6,6,5,1,4,2,1,2,4,4,4,9,9,7,8,5,4,4,5,4,4,4,5,3,3,6,6,4,2,3,3,1,4,2,6,10,11,9,7,5,4,3,3,3,2,3,2,0,3,3,0,1,3,3,1,0,0,3,3,1,2,3,4,2,4,2,0,3,3,0,0,0,0,1,2,2,1,0,0,0,1,2,5,6,5,4,4,3,3,4,4,3,3,4,5,7,7,8,9,9,9,11,13,13,11,10,10,8,7,7,6,5,1,4,2,0,2,4,6,8,5,7,7,6,4,4,4,3,6,3,4,3,5,5,2,4,1,2,2,1,0,0,0,0,0,2,4,1,2,4,3,3,3,4,4,2,1,1,2,1,0,3,2,4,1,0,0,3,3,0,1,4,3,4,1,1,4,2,1,2,2,1,0,0,0,3,3,0,0,3,3,5,6,6,5,6,6,6,10,11,13,14,14,14,14,13,14,16,14,16,17,20,18,13,13,13,14,15,17,18,18,18,15,14,12,9,8,7,7,10,9,11,13,14,14,15,15,15,16,15,15,15,14,13,10,9,9,5,5,3,5,4,4,5,4,5,3,4,3,4,5,10,13,14,16,13,12,13,10,7,6,3,3,5,6,5,2,2,2,3,5,6,5,4,3,4,3,4,5,2,3,3,0,3,4,4,2,5,5,5,7,6,1,2,4,4,6,7,7,5,9,10,8,10,10,10,9,9,10,10,10,8,7,6,4,2,5,8,10,3,19,24,15,6,3,4,4,8,10,12,11,14,14,19,26,26,21,-1,-1,-1,-1,-1,-1,-1,-1,-1,-1,-1,-1,-1,-1,-1,-1,-1,-1,-1,-1,-1,-1,-1,-1,-1,-1,-1,-1,-1,-1,-1,-1,-1,-1,-1,-1,-1,-1,-1,-1,-1,-1,-1,-1,-1,-1,-1,-1,-1,-1,-1,-1,-1,-1,-1,-1,-1,-1,-1,-1,-1
-1,-1,-1,-1,-1,-1,-1,-1,-1,-1,-1,-1,-1,-1,-1,-1,-1,-1,-1,-1,-1,-1,-1,-1,-1,-1,-1,-1,-1,-1,-1,-1,-1,-1,-1,-1,8,8,10,10,9,6,5,5,3,4,4,5,6,6,7,8,5,6,4,3,4,2,0,1,2,3,3,3,3,2,1,0,0,0,1,2,3,2,2,2,4,3,1,3,3,0,0,1,1,1,1,3,3,1,0,0,2,4,3,3,3,2,1,1,1,0,0,1,2,2,1,0,0,0,0,0,0,1,2,4,2,2,2,1,0,1,3,3,1,2,4,3,3,4,3,4,5,6,5,3,4,4,2,2,4,2,4,2,4,5,6,7,6,2,3,3,4,4,5,8,9,10,10,11,8,5,4,4,5,4,5,5,6,4,6,7,6,3,3,3,1,3,3,2,6,9,9,7,7,7,6,6,4,1,1,3,3,2,4,2,0,0,1,4,2,0,0,3,3,3,4,3,2,1,2,4,1,3,3,0,0,0,0,0,0,0,0,0,0,1,4,5,5,5,6,3,3,2,1,1,2,3,3,5,9,7,6,6,6,8,12,13,14,13,10,11,10,9,8,6,5,2,1,4,2,0,3,3,7,7,7,8,6,5,6,5,2,5,4,4,4,5,5,5,2,4,2,0,0,0,0,1,1,1,0,1,4,2,1,2,3,3,3,2,1,0,0,1,1,1,1,4,2,3,0,0,0,3,3,0,2,4,4,2,0,0,3,3,0,0,0,0,0,0,0,3,3,0,0,3,4,5,6,6,7,6,6,7,10,15,14,15,14,14,14,17,15,15,16,16,17,14,12,11,11,10,13,11,14,12,12,9,8,7,6,7,7,7,7,4,4,8,11,13,12,10,13,14,15,14,13,14,12,11,10,9,8,7,5,5,4,5,4,4,5,3,4,4,4,4,5,11,15,13,11,9,12,14,12,9,5,3,3,2,3,4,4,4,4,4,5,5,6,6,3,2,2,5,4,1,4,2,0,3,4,4,3,4,4,5,6,5,0,0,3,4,4,6,7,7,7,8,6,9,10,10,9,10,12,12,10,10,8,5,2,5,5,8,10,12,26,25,22,10,5,3,4,7,9,11,12,14,15,17,22,24,25,-1,-1,-1,-1,-1,-1,-1,-1,-1,-1,-1,-1,-1,-1,-1,-1,-1,-1,-1,-1,-1,-1,-1,-1,-1,-1,-1,-1,-1,-1,-1,-1,-1,-1,-1,-1,-1,-1,-1,-1,-1,-1,-1,-1,-1,-1,-1,-1,-1,-1,-1,-1,-1,-1,-1,-1,-1,-1,-1,-1,-1
-1,-1,-1,-1,-1,-1,-1,-1,-1,-1,-1,-1,-1,-1,-1,-1,-1,-1,-1,-1,-1,-1,-1,-1,-1,-1,-1,-1,-1,-1,-1,-1,-1,-1,-1,-1,-1,6,9,10,9,6,6,6,5,6,5,5,8,7,8,8,7,7,5,2,4,1,1,1,1,0,0,0,0,0,0,0,1,2,4,4,3,4,3,4,2,1,0,2,4,3,3,2,1,0,0,1,3,3,1,0,1,2,3,3,3,4,2,0,0,0,1,3,4,4,4,3,2,1,0,0,0,2,4,2,3,4,4,3,1,0,1,4,2,3,4,4,2,4,3,4,5,6,5,4,3,4,1,1,3,3,3,3,4,3,4,5,5,4,4,4,4,5,5,7,9,9,9,9,8,6,4,2,2,4,4,5,5,5,5,5,5,4,4,3,4,3,3,4,5,5,6,8,7,6,7,7,5,0,0,1,3,3,3,1,0,0,0,3,3,0,0,2,3,3,2,2,1,1,1,3,3,2,4,1,1,1,1,0,0,1,2,3,3,5,6,6,4,6,5,5,4,4,4,3,3,3,5,5,7,8,6,5,6,8,10,13,12,13,10,9,9,10,8,6,4,2,4,3,1,1,4,3,4,5,8,7,3,5,6,5,2,1,4,2,5,5,4,4,4,3,3,0,0,0,0,1,2,1,0,0,2,4,3,3,3,3,3,2,1,0,0,1,2,3,4,3,3,3,0,0,0,2,4,2,4,3,4,1,0,0,3,3,0,1,2,3,2,1,0,3,3,0,0,3,4,6,6,7,7,7,6,8,14,14,15,15,16,15,15,16,16,15,14,14,15,14,6,6,6,7,8,7,9,5,5,3,4,4,4,6,6,6,7,6,4,6,8,10,10,7,9,12,11,10,11,11,10,11,9,6,7,6,4,3,4,4,5,4,5,6,3,4,4,4,7,10,14,11,6,4,6,10,12,9,6,4,2,2,4,4,4,3,1,2,2,4,4,3,0,0,2,4,1,3,3,1,2,4,3,5,6,6,6,6,5,2,0,0,3,4,4,4,6,7,7,6,7,7,8,8,8,12,14,12,10,10,10,8,5,6,6,8,11,22,18,29,29,20,8,3,4,5,9,10,14,15,18,18,18,24,23,16,-1,-1,-1,-1,-1,-1,-1,-1,-1,-1,-1,-1,-1,-1,-1,-1,-1,-1,-1,-1,-1,-1,-1,-1,-1,-1,-1,-1,-1,-1,-1,-1,-1,-1,-1,-1,-1,-1,-1,-1,-1,-1,-1,-1,-1,-1,-1,-1,-1,-1,-1,-1,-1,-1,-1,-1,-1,-1,-1,-1
-1,-1,-1,-1,-1,-1,-1,-1,-1,-1,-1,-1,-1,-1,-1,-1,-1,-1,-1,-1,-1,-1,-1,-1,-1,-1,-1,-1,-1,-1,-1,-1,-1,-1,-1,-1,-1,7,7,9,9,7,6,6,6,6,5,4,8,8,8,8,8,6,3,4,2,1,3,3,2,0,1,2,3,3,3,3,4,4,2,1,0,1,2,2,2,1,0,1,2,3,3,4,4,2,1,0,1,4,2,1,1,1,0,0,0,2,4,3,2,1,1,3,2,1,2,3,4,2,0,0,0,2,4,3,4,1,1,4,2,0,0,3,3,3,4,3,5,3,6,5,4,4,4,3,3,3,0,0,1,4,3,3,4,3,6,7,5,3,4,4,4,5,4,5,5,4,6,5,5,5,5,4,1,1,3,3,2,6,7,7,5,2,3,3,2,3,3,3,4,5,4,8,8,4,6,7,6,1,1,2,2,2,1,0,0,0,0,2,4,1,0,1,2,3,4,4,3,2,1,1,4,2,4,2,3,3,3,1,0,2,4,3,4,6,6,5,4,6,6,6,4,6,6,4,4,4,6,6,6,6,4,5,7,7,9,9,12,12,7,7,9,9,6,5,4,4,2,1,0,2,4,3,4,5,8,7,3,3,4,4,3,0,2,4,3,4,4,4,4,4,3,2,2,1,0,1,1,1,0,0,1,2,3,3,3,3,3,4,4,3,3,4,4,3,2,1,3,3,1,2,3,2,3,3,3,3,3,0,0,1,4,2,2,4,4,3,4,3,1,3,3,0,0,3,4,7,8,6,7,7,7,11,16,17,15,18,18,16,17,16,14,13,11,10,8,8,5,6,4,6,5,4,5,2,1,0,1,2,3,4,4,3,5,5,6,7,7,9,10,9,6,8,9,8,6,8,11,11,7,6,7,7,5,3,4,4,4,4,6,6,4,4,4,4,5,8,12,12,6,6,5,11,12,8,6,4,3,4,3,4,4,3,1,2,4,3,2,4,1,0,2,3,3,4,1,3,4,3,5,6,6,6,6,5,5,1,0,0,3,4,5,6,6,6,7,7,6,7,9,7,8,9,10,12,11,9,11,9,5,6,6,2,8,18,19,23,28,22,9,5,4,5,9,10,15,16,19,20,17,21,21,18,-1,-1,-1,-1,-1,-1,-1,-1,-1,-1,-1,-1,-1,-1,-1,-1,-1,-1,-1,-1,-1,-1,-1,-1,-1,-1,-1,-1,-1,-1,-1,-1,-1,-1,-1,-1,-1,-1,-1,-1,-1,-1,-1,-1,-1,-1,-1,-1,-1,-1,-1,-1,-1,-1,-1,-1,-1,-1,-1,-1
-1,-1,-1,-1,-1,-1,-1,-1,-1,-1,-1,-1,-1,-1,-1,-1,-1,-1,-1,-1,-1,-1,-1,-1,-1,-1,-1,-1,-1,-1,-1,-1,-1,-1,-1,-1,-1,6,6,10,7,7,7,6,4,4,4,4,8,9,8,8,7,4,3,4,1,2,4,3,3,1,3,4,3,3,3,3,2,1,1,2,3,3,4,4,4,3,1,0,0,0,0,1,2,4,3,1,0,2,4,3,3,4,3,2,1,2,1,3,4,3,1,4,2,0,0,0,2,4,1,0,0,1,3,3,2,1,2,4,2,0,0,3,3,5,6,5,4,5,4,4,4,4,3,4,3,4,1,0,1,4,3,4,3,3,5,6,4,3,4,3,3,2,3,4,5,3,7,7,3,4,6,6,5,2,2,3,1,2,6,6,4,5,3,5,6,5,4,3,4,3,4,7,7,4,4,6,4,2,2,4,4,2,0,0,0,0,0,1,4,2,0,1,3,3,1,3,3,1,1,0,3,3,5,4,3,2,3,3,1,2,4,2,4,5,5,6,6,9,9,7,7,7,6,4,4,4,6,6,5,5,2,5,6,7,9,9,12,12,8,8,10,9,6,6,4,3,2,1,0,2,4,3,4,6,7,7,5,3,4,4,4,1,1,4,3,5,5,4,4,4,4,4,4,2,0,1,2,3,3,2,1,0,0,0,0,0,0,1,2,3,3,2,1,0,0,0,3,3,2,4,3,4,4,4,3,4,2,2,3,5,4,4,4,2,1,0,1,3,3,2,4,1,1,4,4,8,8,7,8,8,9,11,13,16,14,16,16,16,14,17,13,9,10,8,8,5,6,6,4,3,4,3,1,1,1,1,1,2,2,1,2,4,4,6,7,8,8,8,9,8,6,3,5,6,6,5,8,9,8,6,6,6,4,3,2,5,4,5,5,6,4,3,3,3,3,5,11,12,9,8,6,7,12,10,7,1,2,3,4,2,4,2,2,4,2,1,1,3,3,1,2,4,3,3,2,4,3,4,4,5,6,7,4,4,2,0,0,0,2,4,5,7,7,6,6,7,6,9,9,6,10,13,11,10,9,9,9,9,7,6,7,5,5,13,16,19,24,18,12,8,3,6,9,11,15,16,21,21,17,19,20,17,-1,-1,-1,-1,-1,-1,-1,-1,-1,-1,-1,-1,-1,-1,-1,-1,-1,-1,-1,-1,-1,-1,-1,-1,-1,-1,-1,-1,-1,-1,-1,-1,-1,-1,-1,-1,-1,-1,-1,-1,-1,-1,-1,-1,-1,-1,-1,-1,-1,-1,-1,-1,-1,-1,-1,-1,-1,-1,-1,-1
-1,-1,-1,-1,-1,-1,-1,-1,-1,-1,-1,-1,-1,-1,-1,-1,-1,-1,-1,-1,-1,-1,-1,-1,-1,-1,-1,-1,-1,-1,-1,-1,-1,-1,-1,-1,-1,3,4,8,8,6,8,7,4,6,6,6,10,11,10,7,7,6,3,3,0,2,4,3,3,1,3,2,0,0,0,0,1,2,4,4,3,3,2,1,1,4,2,1,2,2,1,0,0,1,3,3,1,1,3,3,3,3,3,4,4,4,3,2,1,3,3,2,4,1,0,0,1,3,4,2,1,0,1,1,2,3,3,3,1,0,1,4,3,5,6,6,5,4,4,4,3,4,2,3,3,4,2,1,3,3,3,3,4,2,3,4,4,3,2,3,3,4,3,3,3,5,8,7,4,3,5,6,5,4,3,3,2,1,6,7,5,6,6,7,7,4,2,3,3,5,5,7,6,5,4,4,4,3,2,4,4,2,0,0,0,0,0,0,3,3,1,3,3,1,1,4,2,0,0,0,3,4,5,5,2,0,1,3,4,3,3,4,4,5,8,7,7,9,10,9,8,7,6,4,4,4,5,4,4,2,3,4,4,8,9,9,10,10,9,9,11,10,6,6,3,3,4,4,2,1,4,3,5,6,6,6,5,4,4,3,4,2,0,3,3,5,5,4,4,4,4,4,4,2,2,4,4,3,3,4,3,1,0,0,0,0,0,0,0,0,0,0,0,0,0,0,3,3,4,2,2,3,4,4,3,3,4,4,4,5,5,2,2,1,0,0,0,1,4,2,3,4,4,3,5,8,7,9,10,10,10,12,16,14,13,12,10,12,10,11,8,8,8,8,6,6,6,6,4,4,2,1,1,3,3,3,2,4,3,1,0,1,2,5,6,5,5,6,6,7,7,4,5,6,7,9,9,7,6,6,7,7,5,3,3,1,4,4,5,4,4,4,3,4,4,2,6,7,10,10,10,10,12,8,6,3,4,3,2,4,3,1,3,3,1,1,1,3,3,1,3,3,3,3,3,4,4,3,3,5,7,6,2,4,1,0,0,0,1,4,4,6,6,6,5,6,6,9,10,8,8,11,13,10,9,11,11,11,9,3,5,6,5,7,12,13,11,16,16,11,4,3,6,11,14,16,21,23,19,16,19,19,-1,-1,-1,-1,-1,-1,-1,-1,-1,-1,-1,-1,-1,-1,-1,-1,-1,-1,-1,-1,-1,-1,-1,-1,-1,-1,-1,-1,-1,-1,-1,-1,-1,-1,-1,-1,-1,-1,-1,-1,-1,-1,-1,-1,-1,-1,-1,-1,-1,-1,-1,-1,-1,-1,-1,-1,-1,-1,-1,-1
-1,-1,-1,-1,-1,-1,-1,-1,-1,-1,-1,-1,-1,-1,-1,-1,-1,-1,-1,-1,-1,-1,-1,-1,-1,-1,-1,-1,-1,-1,-1,-1,-1,-1,-1,-1,-1,6,6,8,7,6,8,7,6,7,7,7,8,10,11,10,6,5,2,4,1,1,3,3,2,2,3,1,0,0,0,1,3,4,2,1,0,0,0,0,0,3,3,1,4,4,1,0,0,0,2,3,1,1,3,1,3,3,3,1,3,1,4,2,1,2,4,4,4,2,1,2,3,2,2,4,4,2,1,1,4,3,1,1,0,1,3,3,4,6,4,4,4,5,6,3,4,3,2,4,2,4,2,3,3,1,3,4,3,2,2,4,3,3,4,3,3,2,1,3,4,5,6,6,5,1,1,5,5,3,4,4,4,2,4,7,6,6,4,6,5,4,4,3,3,4,6,6,6,5,4,4,4,3,1,2,2,1,1,2,2,1,0,0,3,3,2,4,1,1,3,3,1,2,2,1,2,5,5,3,3,1,2,3,3,3,2,5,6,7,7,6,6,10,9,6,6,6,3,3,3,4,4,4,3,1,3,4,4,7,8,11,12,10,10,10,9,7,4,3,2,3,3,3,4,4,3,5,5,6,6,7,7,6,6,5,3,3,0,2,4,3,4,4,4,4,4,4,6,6,4,4,2,1,0,1,4,2,0,0,0,0,1,1,2,2,3,3,2,1,0,0,3,2,4,2,4,3,3,4,3,4,2,3,4,2,2,4,3,2,0,0,0,0,3,3,1,2,3,5,6,7,9,10,10,10,12,13,14,16,12,10,10,9,5,6,4,4,6,6,6,6,6,5,3,4,3,1,3,3,2,3,4,6,4,2,1,0,2,4,1,1,1,4,6,5,7,5,2,5,8,10,12,7,6,6,6,6,5,2,3,4,2,3,3,3,4,3,3,2,1,2,4,3,6,7,8,9,8,5,1,3,2,3,4,2,1,0,2,3,3,2,3,4,2,1,3,3,4,2,3,4,4,4,2,5,6,5,3,3,0,0,0,0,1,5,5,4,4,4,4,5,6,9,10,10,10,11,12,12,8,11,12,11,8,2,4,6,5,2,10,7,4,13,14,11,8,5,6,10,13,18,23,24,21,15,19,16,-1,-1,-1,-1,-1,-1,-1,-1,-1,-1,-1,-1,-1,-1,-1,-1,-1,-1,-1,-1,-1,-1,-1,-1,-1,-1,-1,-1,-1,-1,-1,-1,-1,-1,-1,-1,-1,-1,-1,-1,-1,-1,-1,-1,-1,-1,-1,-1,-1,-1,-1,-1,-1,-1,-1,-1,-1,-1,-1,-1
-1,-1,-1,-1,-1,-1,-1,-1,-1,-1,-1,-1,-1,-1,-1,-1,-1,-1,-1,-1,-1,-1,-1,-1,-1,-1,-1,-1,-1,-1,-1,-1,-1,-1,-1,-1,-1,4,6,6,5,7,7,5,7,7,7,7,6,8,9,8,4,4,1,3,4,2,1,1,1,2,4,1,0,1,2,4,3,1,0,0,0,0,0,0,0,3,3,1,2,2,1,0,1,2,4,3,1,3,4,4,4,4,5,3,4,4,2,1,3,4,6,4,4,6,4,4,3,4,2,1,3,3,1,2,4,1,0,0,0,2,4,2,4,4,7,3,4,4,4,4,3,5,5,4,5,4,4,3,1,1,4,2,3,4,3,4,4,2,1,1,2,2,1,3,4,4,3,4,4,4,1,3,4,4,3,7,5,3,5,4,5,4,2,1,2,6,6,5,3,3,4,4,4,4,4,4,4,3,0,0,0,0,1,4,4,1,0,0,2,4,3,3,1,1,2,3,2,3,4,2,2,5,5,3,3,3,4,3,4,4,5,6,6,5,6,4,4,7,8,4,4,6,6,3,4,4,4,3,1,0,3,4,4,7,8,10,12,12,11,13,9,6,6,4,4,3,3,4,3,2,5,4,5,6,6,6,7,7,6,5,3,4,2,1,4,4,4,4,5,6,4,6,8,8,7,4,4,3,1,1,4,2,0,0,0,0,1,2,0,3,3,3,4,3,1,0,2,4,2,3,3,1,2,3,4,3,4,3,2,4,4,2,3,3,0,0,0,0,3,3,0,2,4,5,6,6,9,10,12,12,14,13,14,14,10,11,11,8,3,4,4,2,3,4,5,6,4,2,2,2,3,3,4,2,3,2,4,6,6,4,4,3,3,5,2,2,1,2,6,6,5,4,3,5,8,10,8,6,6,6,7,7,6,5,1,2,4,3,4,2,2,4,4,3,4,4,2,3,3,1,6,6,4,1,1,2,4,3,1,0,0,0,2,1,4,3,4,1,2,3,6,4,3,1,5,5,4,3,4,4,4,3,2,4,1,0,0,1,4,4,4,5,5,3,3,3,5,6,8,10,10,10,13,13,8,13,13,12,12,4,2,5,5,2,4,6,3,9,14,12,8,5,6,8,14,18,23,23,22,17,17,17,-1,-1,-1,-1,-1,-1,-1,-1,-1,-1,-1,-1,-1,-1,-1,-1,-1,-1,-1,-1,-1,-1,-1,-1,-1,-1,-1,-1,-1,-1,-1,-1,-1,-1,-1,-1,-1,-1,-1,-1,-1,-1,-1,-1,-1,-1,-1,-1,-1,-1,-1,-1,-1,-1,-1,-1,-1,-1,-1,-1
-1,-1,-1,-1,-1,-1,-1,-1,-1,-1,-1,-1,-1,-1,-1,-1,-1,-1,-1,-1,-1,-1,-1,-1,-1,-1,-1,-1,-1,-1,-1,-1,-1,-1,-1,-1,-1,4,4,6,7,7,5,7,7,7,8,7,8,6,8,8,3,3,4,3,4,5,5,2,2,4,2,0,1,1,3,3,1,0,0,0,0,0,0,0,0,2,4,1,0,0,0,0,2,4,2,2,4,3,1,2,5,7,5,5,3,1,0,2,4,1,2,4,4,5,4,3,2,2,4,3,4,3,1,4,2,0,1,2,3,4,2,3,3,5,4,4,6,6,6,4,4,5,6,4,6,6,4,3,3,4,3,1,1,2,3,5,4,5,2,3,4,4,4,6,5,4,3,1,4,4,5,4,2,3,3,6,6,1,2,3,3,3,4,4,4,5,8,7,4,6,6,5,4,4,4,4,4,2,0,0,0,0,1,2,2,1,1,1,2,3,4,3,1,2,2,4,4,4,6,3,4,3,4,3,4,3,3,0,1,2,5,6,5,4,4,4,4,7,7,2,5,8,9,4,3,3,4,4,2,0,3,6,6,7,7,8,12,13,14,13,9,8,6,5,2,3,3,2,3,4,3,5,6,6,6,7,6,7,7,6,4,2,4,3,3,4,5,5,4,5,6,8,10,11,9,7,4,5,2,4,3,1,0,1,2,3,2,2,2,3,4,3,3,3,1,0,1,1,1,4,2,3,4,3,3,4,4,4,4,2,1,0,3,3,0,0,0,1,4,2,0,3,4,5,6,7,9,10,13,15,12,12,12,12,9,9,7,4,4,4,3,2,4,2,5,5,3,4,4,3,4,5,4,4,3,4,4,5,5,4,3,3,5,4,5,4,3,5,4,5,5,5,5,4,5,8,8,4,4,4,4,5,6,6,5,3,2,4,3,4,3,3,4,4,4,3,4,3,2,2,4,3,2,2,4,5,4,2,1,0,0,1,3,4,3,6,3,4,4,4,7,5,3,5,6,5,8,7,6,7,5,2,1,4,2,0,1,4,4,4,3,4,5,2,4,1,5,7,7,9,10,10,12,11,9,11,14,15,14,9,4,3,4,6,5,8,7,4,12,14,12,6,6,6,12,18,21,24,25,23,17,17,-1,-1,-1,-1,-1,-1,-1,-1,-1,-1,-1,-1,-1,-1,-1,-1,-1,-1,-1,-1,-1,-1,-1,-1,-1,-1,-1,-1,-1,-1,-1,-1,-1,-1,-1,-1,-1,-1,-1,-1,-1,-1,-1,-1,-1,-1,-1,-1,-1,-1,-1,-1,-1,-1,-1,-1,-1,-1,-1,-1
-1,-1,-1,-1,-1,-1,-1,-1,-1,-1,-1,-1,-1,-1,-1,-1,-1,-1,-1,-1,-1,-1,-1,-1,-1,-1,-1,-1,-1,-1,-1,-1,-1,-1,-1,-1,-1,4,4,5,8,7,7,8,6,8,8,8,8,4,7,8,5,1,2,3,3,5,4,4,3,3,1,1,1,1,3,2,0,0,0,0,0,0,0,0,0,1,3,4,2,1,1,2,4,2,3,4,2,1,0,1,3,6,4,4,3,4,3,4,2,0,1,3,4,4,4,4,4,6,6,4,4,3,4,3,1,2,4,4,3,2,1,3,3,4,4,6,7,7,6,5,3,4,6,4,5,5,3,3,3,2,1,0,0,0,0,1,4,4,4,3,2,1,2,3,5,4,2,0,1,4,4,2,1,2,1,7,6,1,1,1,3,3,3,5,6,5,6,6,3,4,5,5,5,6,5,3,4,1,0,0,0,0,0,0,0,1,3,3,3,3,4,2,1,1,1,2,4,6,8,6,4,4,3,5,3,6,3,3,3,5,4,5,6,3,2,5,6,6,7,6,6,9,8,5,5,3,1,4,2,1,3,7,8,6,9,7,11,12,13,13,9,8,6,5,5,4,4,5,5,3,3,5,6,7,6,7,7,6,7,6,3,4,2,3,4,5,5,4,4,4,6,8,10,11,11,10,6,7,7,3,2,1,0,2,4,4,4,4,2,1,2,3,3,2,1,0,0,0,1,3,3,4,1,1,3,4,3,2,1,0,0,0,3,3,0,1,2,4,3,1,1,2,4,5,7,7,7,10,11,14,11,10,11,10,8,9,6,4,4,4,3,3,3,2,4,3,4,4,4,6,4,4,5,2,3,3,4,4,3,3,4,4,2,4,5,4,4,6,5,7,6,6,6,5,6,8,7,4,5,6,5,5,6,6,3,3,4,4,5,2,3,4,4,4,4,4,4,4,3,5,6,4,5,6,6,6,4,5,5,3,3,5,4,5,5,5,5,3,4,4,7,5,3,7,9,10,12,12,12,8,4,1,0,3,3,1,4,6,5,4,3,3,3,2,4,2,3,6,7,10,10,9,10,9,9,11,13,14,14,9,4,1,7,7,3,8,8,7,14,17,12,6,5,7,12,18,20,24,28,25,19,19,15,-1,-1,-1,-1,-1,-1,-1,-1,-1,-1,-1,-1,-1,-1,-1,-1,-1,-1,-1,-1,-1,-1,-1,-1,-1,-1,-1,-1,-1,-1,-1,-1,-1,-1,-1,-1,-1,-1,-1,-1,-1,-1,-1,-1,-1,-1,-1,-1,-1,-1,-1,-1,-1,-1,-1,-1,-1,-1,-1
-1,-1,-1,-1,-1,-1,-1,-1,-1,-1,-1,-1,-1,-1,-1,-1,-1,-1,-1,-1,-1,-1,-1,-1,-1,-1,-1,-1,-1,-1,-1,-1,-1,-1,-1,-1,-1,6,6,5,8,7,8,8,4,8,8,7,8,6,6,6,4,4,2,1,0,1,4,2,1,1,0,1,2,1,3,4,1,0,0,0,0,0,0,0,0,0,1,2,4,3,3,4,2,3,3,1,1,1,1,2,4,4,4,4,3,3,3,2,1,0,1,2,4,4,4,4,6,7,7,6,4,4,4,3,4,4,2,2,5,4,5,4,3,4,5,7,7,6,4,5,5,3,4,3,3,1,0,0,0,0,0,0,0,0,1,1,1,4,2,1,1,0,1,4,3,4,1,0,0,1,3,4,3,4,4,6,5,3,2,0,1,3,5,5,7,3,4,4,2,4,5,5,4,5,5,2,4,1,0,0,0,0,0,0,1,3,3,2,2,3,3,1,1,2,4,4,3,4,6,6,4,4,5,4,5,5,6,4,4,5,4,4,3,2,1,4,7,9,10,7,5,6,6,6,6,3,3,4,4,4,5,8,9,8,9,9,10,9,12,13,10,8,7,7,6,3,3,5,5,5,5,2,5,8,7,6,6,7,7,7,5,4,5,5,5,6,5,6,3,3,7,9,10,10,13,14,10,8,6,4,4,4,3,4,3,3,3,2,4,4,3,3,2,1,0,0,1,2,2,4,4,3,0,2,4,1,0,0,0,0,0,0,2,4,1,1,3,3,1,2,3,3,7,8,8,7,8,9,13,12,13,11,11,9,9,7,6,6,6,5,2,2,4,2,3,4,4,4,4,6,5,6,4,4,4,4,4,4,3,4,3,2,4,4,4,4,6,7,6,7,6,6,6,5,4,5,6,3,5,5,5,4,4,4,4,2,1,5,4,4,4,4,3,3,4,4,4,4,5,7,8,7,6,8,7,6,4,6,3,3,4,6,6,5,5,3,4,4,2,4,2,4,8,12,11,15,15,15,15,13,11,9,5,4,2,3,4,6,6,2,1,2,4,1,3,3,5,7,9,8,10,10,10,10,8,11,12,13,13,9,6,1,7,7,3,4,11,13,18,20,15,7,5,7,10,17,20,24,27,25,19,18,15,-1,-1,-1,-1,-1,-1,-1,-1,-1,-1,-1,-1,-1,-1,-1,-1,-1,-1,-1,-1,-1,-1,-1,-1,-1,-1,-1,-1,-1,-1,-1,-1,-1,-1,-1,-1,-1,-1,-1,-1,-1,-1,-1,-1,-1,-1,-1,-1,-1,-1,-1,-1,-1,-1,-1,-1,-1,-1,-1
-1,-1,-1,-1,-1,-1,-1,-1,-1,-1,-1,-1,-1,-1,-1,-1,-1,-1,-1,-1,-1,-1,-1,-1,-1,-1,-1,-1,-1,-1,-1,-1,-1,-1,-1,-1,-1,6,8,9,7,10,7,9,6,7,8,5,8,7,4,5,6,3,4,2,0,0,3,3,0,0,0,1,1,1,1,4,2,0,0,0,0,0,0,0,0,0,0,0,1,3,3,2,2,4,1,2,3,4,4,4,2,3,4,3,3,4,3,1,0,0,2,4,3,3,3,3,3,6,7,8,8,8,7,4,2,1,4,5,6,8,6,6,7,4,4,6,6,4,3,5,5,4,3,3,4,3,2,1,1,2,2,1,0,0,1,2,1,2,4,1,0,0,1,3,3,4,1,0,0,0,1,2,3,2,4,4,4,3,4,1,0,1,3,6,4,3,5,5,4,4,5,6,5,3,3,1,3,4,3,3,3,3,2,1,2,4,1,0,2,4,1,1,3,4,3,3,5,6,4,3,3,3,5,5,5,6,6,4,4,4,4,3,1,1,1,2,8,12,12,10,6,5,6,6,5,4,5,6,7,5,8,9,10,9,8,10,7,8,11,13,10,9,8,7,3,2,3,3,3,5,4,4,6,8,7,5,6,6,7,6,5,3,5,4,6,6,6,3,4,5,7,9,8,6,10,14,14,9,6,2,2,2,3,2,3,3,4,2,1,2,3,3,4,2,0,1,3,4,4,4,6,5,1,3,3,1,2,3,3,3,2,1,1,3,4,2,4,2,0,2,4,3,8,9,8,8,9,9,10,13,11,10,9,9,10,9,6,6,5,5,1,1,2,4,4,4,4,4,4,6,6,5,4,2,4,3,4,4,4,3,4,5,3,4,4,4,6,7,6,6,5,5,5,2,4,3,4,3,3,3,6,7,6,5,2,4,3,3,3,2,2,1,2,4,4,3,3,3,5,7,8,8,6,4,4,5,4,4,3,3,4,4,5,3,4,4,2,1,3,3,2,5,8,10,13,15,17,15,18,17,14,13,11,7,6,4,4,3,4,5,4,4,4,2,1,1,2,6,8,8,10,10,10,10,10,11,11,14,14,13,10,4,5,7,4,4,13,15,12,22,21,7,6,7,9,15,21,23,24,22,18,18,17,-1,-1,-1,-1,-1,-1,-1,-1,-1,-1,-1,-1,-1,-1,-1,-1,-1,-1,-1,-1,-1,-1,-1,-1,-1,-1,-1,-1,-1,-1,-1,-1,-1,-1,-1,-1,-1,-1,-1,-1,-1,-1,-1,-1,-1,-1,-1,-1,-1,-1,-1,-1,-1,-1,-1,-1,-1,-1,-1
-1,-1,-1,-1,-1,-1,-1,-1,-1,-1,-1,-1,-1,-1,-1,-1,-1,-1,-1,-1,-1,-1,-1,-1,-1,-1,-1,-1,-1,-1,-1,-1,-1,-1,-1,-1,-1,6,9,10,10,9,9,10,8,5,7,7,7,8,5,5,3,4,3,4,1,1,4,2,0,0,0,0,0,0,0,3,3,0,0,0,0,0,0,0,0,0,0,0,0,1,1,1,3,3,1,4,3,2,2,1,3,3,1,0,0,1,4,2,0,0,3,3,1,2,3,2,3,4,6,7,8,8,8,4,4,4,4,6,4,6,7,8,7,4,4,4,4,4,3,4,4,4,3,2,1,3,4,2,3,3,3,2,2,3,2,1,1,1,3,3,1,0,1,3,4,4,4,1,0,0,0,0,0,2,5,5,2,1,3,4,2,1,3,3,1,3,4,2,4,4,4,4,3,2,4,3,3,6,7,8,8,7,5,5,4,2,2,3,4,2,2,5,4,5,5,7,8,7,6,7,7,7,7,6,9,8,6,4,4,4,4,3,3,3,5,8,11,11,9,7,3,1,5,6,5,3,3,4,6,3,7,10,12,11,9,8,7,7,8,10,10,8,8,7,4,3,3,3,4,3,4,6,7,7,4,4,6,6,7,6,5,2,1,4,4,4,4,3,1,1,6,7,4,3,8,17,16,12,6,3,3,1,0,0,2,4,4,2,1,2,2,1,2,4,3,4,3,1,1,5,6,4,3,3,3,2,4,3,3,3,4,2,0,1,2,4,4,3,0,1,2,2,7,7,8,9,9,10,12,12,10,12,11,11,12,10,7,4,3,3,0,1,2,3,4,4,4,4,4,6,6,4,3,4,2,3,3,4,3,3,5,5,4,4,4,4,6,6,6,6,4,4,2,4,2,3,4,3,3,3,5,6,6,4,4,2,3,4,5,1,1,3,4,2,1,0,0,2,5,7,7,7,5,4,1,3,3,4,2,4,3,3,3,4,2,1,2,4,3,1,5,6,10,12,15,15,16,14,16,18,15,14,11,8,6,5,2,1,2,5,8,5,5,5,1,0,0,4,4,9,10,10,10,11,11,12,11,12,14,14,9,4,6,7,5,1,9,16,13,26,24,12,6,5,11,16,20,22,22,22,17,18,20,18,-1,-1,-1,-1,-1,-1,-1,-1,-1,-1,-1,-1,-1,-1,-1,-1,-1,-1,-1,-1,-1,-1,-1,-1,-1,-1,-1,-1,-1,-1,-1,-1,-1,-1,-1,-1,-1,-1,-1,-1,-1,-1,-1,-1,-1,-1,-1,-1,-1,-1,-1,-1,-1,-1,-1,-1,-1,-1
-1,-1,-1,-1,-1,-1,-1,-1,-1,-1,-1,-1,-1,-1,-1,-1,-1,-1,-1,-1,-1,-1,-1,-1,-1,-1,-1,-1,-1,-1,-1,-1,-1,-1,-1,-1,3,5,8,10,10,10,10,10,10,9,6,7,7,7,6,5,5,2,4,4,2,2,4,1,0,0,0,0,0,0,1,4,2,0,0,0,0,0,0,0,0,1,1,1,0,0,0,0,3,3,1,3,3,1,0,2,4,1,0,0,0,0,3,3,0,0,3,3,2,4,3,3,3,3,4,3,3,4,4,3,2,3,6,4,3,4,7,7,4,3,2,3,4,6,5,3,4,4,3,3,3,4,4,3,4,2,4,3,4,3,4,2,0,0,1,4,2,0,0,1,3,5,4,5,2,2,1,1,1,4,4,4,2,1,1,3,3,2,4,2,1,4,3,4,4,4,4,5,6,3,4,6,7,9,9,9,9,9,9,10,8,7,4,4,6,6,4,6,6,6,7,8,7,8,10,13,13,13,12,10,8,8,7,6,4,4,6,7,8,8,9,8,8,8,8,6,3,0,3,4,4,3,3,6,4,2,9,12,12,10,9,9,7,7,8,9,9,8,7,8,5,4,2,0,1,4,4,7,8,6,3,1,5,6,8,7,4,4,1,4,4,4,4,3,0,1,6,7,6,5,6,17,16,12,7,2,4,1,2,2,1,2,2,1,2,4,3,1,1,2,3,2,1,0,0,2,5,5,4,3,4,3,5,1,0,1,4,2,0,0,0,3,4,3,1,1,1,2,4,5,8,9,10,12,11,10,12,12,10,9,10,9,7,2,3,3,2,4,4,4,4,4,4,4,4,5,5,3,3,2,3,3,2,2,4,4,2,2,3,3,3,4,6,6,6,6,4,4,4,3,1,4,4,3,3,3,3,4,4,4,3,4,3,5,4,4,4,3,1,0,0,0,0,3,5,7,4,6,8,4,1,2,2,2,4,3,4,2,4,1,2,4,4,2,1,2,5,6,11,15,13,15,12,11,9,14,13,13,12,8,4,1,1,1,4,6,7,6,7,5,2,0,0,1,3,5,9,10,10,12,13,10,9,10,14,11,9,6,5,7,6,1,7,14,20,25,20,13,6,5,10,18,21,21,19,16,18,20,21,-1,-1,-1,-1,-1,-1,-1,-1,-1,-1,-1,-1,-1,-1,-1,-1,-1,-1,-1,-1,-1,-1,-1,-1,-1,-1,-1,-1,-1,-1,-1,-1,-1,-1,-1,-1,-1,-1,-1,-1,-1,-1,-1,-1,-1,-1,-1,-1,-1,-1,-1,-1,-1,-1,-1,-1,-1,-1,-1
-1,-1,-1,-1,-1,-1,-1,-1,-1,-1,-1,-1,-1,-1,-1,-1,-1,-1,-1,-1,-1,-1,-1,-1,-1,-1,-1,-1,-1,-1,-1,-1,-1,-1,-1,-1,3,5,6,9,10,10,10,10,10,9,8,9,6,6,6,5,4,4,4,4,3,3,3,0,0,0,0,0,0,0,2,4,1,0,0,0,0,0,0,0,0,1,2,1,0,0,0,0,3,3,1,2,4,2,0,2,4,1,0,0,0,0,2,4,2,2,4,2,4,2,1,2,1,3,3,0,0,3,4,4,5,5,5,4,4,6,6,5,4,1,0,3,6,7,6,4,4,4,3,4,3,2,2,2,4,3,4,3,2,0,3,3,0,0,0,2,4,1,0,1,2,3,5,3,4,3,3,4,4,3,4,2,1,1,1,3,3,2,3,2,1,3,2,1,3,4,4,4,5,6,7,8,8,10,11,11,11,11,10,11,9,9,8,8,9,8,8,8,6,6,6,5,5,9,12,13,14,12,12,13,11,11,9,9,8,8,8,8,9,10,12,9,10,8,5,3,4,1,2,5,6,6,4,6,6,3,7,10,10,9,9,9,8,6,8,9,8,8,7,8,6,3,3,0,0,3,4,7,8,6,5,1,3,4,8,8,3,3,3,4,3,4,4,3,0,0,5,5,5,10,14,19,15,8,5,3,2,3,4,4,4,3,3,2,2,3,3,1,0,0,0,0,0,0,0,1,5,5,3,4,2,6,4,4,3,4,3,1,0,0,0,3,4,3,2,4,2,4,6,7,7,9,13,12,13,12,11,10,9,9,9,8,5,4,2,3,4,3,5,5,4,4,3,3,3,2,2,3,2,1,3,2,0,0,1,3,3,1,1,2,5,5,6,6,6,6,4,4,4,3,4,3,4,2,3,3,5,4,2,2,4,3,3,3,4,3,2,1,0,0,0,0,0,3,4,5,4,6,5,4,1,2,1,1,3,6,3,6,4,6,4,2,1,1,2,4,6,8,14,14,10,9,9,9,6,6,8,12,12,10,8,4,2,2,5,6,6,6,7,7,6,3,3,2,1,5,9,10,10,14,14,13,10,10,11,13,10,7,3,6,4,2,4,13,15,16,16,13,8,7,9,16,19,19,16,15,17,22,21,-1,-1,-1,-1,-1,-1,-1,-1,-1,-1,-1,-1,-1,-1,-1,-1,-1,-1,-1,-1,-1,-1,-1,-1,-1,-1,-1,-1,-1,-1,-1,-1,-1,-1,-1,-1,-1,-1,-1,-1,-1,-1,-1,-1,-1,-1,-1,-1,-1,-1,-1,-1,-1,-1,-1,-1,-1,-1,-1
-1,-1,-1,-1,-1,-1,-1,-1,-1,-1,-1,-1,-1,-1,-1,-1,-1,-1,-1,-1,-1,-1,-1,-1,-1,-1,-1,-1,-1,-1,-1,-1,-1,-1,-1,-1,-1,2,4,9,9,9,10,10,10,9,9,9,8,9,6,5,5,5,4,4,4,3,3,0,0,0,0,0,0,0,3,3,0,0,0,0,0,0,0,0,0,1,1,1,0,0,0,1,4,2,0,1,4,2,0,2,3,1,0,1,1,1,1,2,4,3,3,3,3,2,3,4,3,4,2,0,0,2,4,4,6,6,4,5,6,6,6,6,6,4,1,5,7,7,6,4,5,2,3,4,2,1,0,2,3,1,4,3,3,2,4,2,0,0,0,1,3,4,3,3,4,4,3,1,1,1,1,2,3,4,3,1,0,1,3,3,1,2,3,1,1,4,3,2,4,2,4,3,4,7,8,8,9,8,10,12,12,11,10,10,8,8,9,11,12,9,8,7,5,7,6,6,7,8,8,10,13,13,13,11,11,12,12,10,8,8,7,7,8,9,11,10,9,8,3,1,3,3,1,5,7,7,6,7,5,6,8,11,10,10,9,9,8,5,8,9,8,8,8,8,6,3,3,1,1,3,4,6,6,6,5,2,4,6,8,7,4,4,3,3,5,5,4,3,2,3,4,2,3,7,11,14,11,6,4,4,4,3,1,1,2,4,4,4,2,1,1,0,0,0,0,0,0,0,0,0,3,4,3,3,3,2,4,2,3,2,1,1,2,3,3,4,3,4,2,4,3,4,6,7,8,10,14,14,12,12,11,12,9,7,9,10,5,6,5,4,5,5,5,5,3,4,3,1,0,1,3,3,4,2,3,4,3,3,3,4,3,1,2,4,4,5,5,6,5,5,3,4,4,4,4,4,3,2,4,2,6,6,1,1,4,3,4,1,2,4,4,2,1,0,0,0,0,2,4,3,3,3,5,2,1,1,1,3,4,5,6,11,11,8,6,5,3,5,5,4,7,8,11,16,11,7,9,10,8,2,6,12,15,14,12,2,4,4,4,4,4,4,4,5,6,4,3,4,3,3,6,9,11,14,14,12,12,12,10,13,12,7,3,6,4,3,5,8,8,9,11,10,8,7,9,15,16,14,13,18,18,17,20,-1,-1,-1,-1,-1,-1,-1,-1,-1,-1,-1,-1,-1,-1,-1,-1,-1,-1,-1,-1,-1,-1,-1,-1,-1,-1,-1,-1,-1,-1,-1,-1,-1,-1,-1,-1,-1,-1,-1,-1,-1,-1,-1,-1,-1,-1,-1,-1,-1,-1,-1,-1,-1,-1,-1,-1,-1,-1,-1
-1,-1,-1,-1,-1,-1,-1,-1,-1,-1,-1,-1,-1,-1,-1,-1,-1,-1,-1,-1,-1,-1,-1,-1,-1,-1,-1,-1,-1,-1,-1,-1,-1,-1,-1,-1,-1,4,2,8,7,10,11,10,10,9,9,7,9,7,6,5,4,4,4,3,3,4,3,0,0,0,0,0,0,1,4,2,0,0,0,0,0,0,0,0,0,0,0,0,0,0,0,2,4,1,1,3,3,1,1,3,3,2,3,4,3,4,3,3,3,6,6,5,5,5,4,4,3,2,1,0,0,1,2,3,4,5,4,6,6,6,5,5,6,6,5,8,7,7,7,5,1,0,3,3,1,1,1,3,3,2,4,4,3,3,3,1,2,2,1,1,1,2,3,3,3,2,1,0,0,1,2,3,4,2,2,1,0,2,4,1,1,3,3,1,0,2,3,4,2,1,2,3,4,8,7,8,7,8,5,5,5,8,8,8,6,6,9,12,10,8,8,8,9,8,8,7,9,10,10,9,11,10,10,10,12,10,11,9,6,3,4,7,6,7,6,7,6,5,3,1,1,4,5,4,7,10,9,6,6,6,9,11,12,12,11,9,8,8,8,8,8,8,9,8,5,4,2,3,3,4,6,6,4,5,6,6,4,6,7,6,4,3,4,3,5,5,4,1,4,4,3,1,2,5,7,9,7,5,2,3,2,1,0,0,1,3,4,4,3,0,0,0,1,2,3,3,2,1,0,1,4,4,3,1,4,2,3,4,2,1,1,3,4,3,3,2,1,3,4,4,6,5,7,9,10,12,14,13,12,12,12,10,7,5,7,7,7,6,6,4,5,5,2,2,3,2,3,3,1,1,3,4,4,2,1,2,3,3,3,2,2,1,3,4,4,4,6,6,4,3,5,5,4,4,4,4,4,4,2,4,5,4,1,3,3,3,3,0,0,1,2,4,3,1,0,0,0,1,2,4,2,2,3,4,3,3,5,5,9,13,15,15,14,12,10,9,6,6,6,4,5,4,11,15,13,11,13,15,13,7,6,8,14,16,15,5,2,1,3,3,1,3,3,5,3,4,2,2,3,4,6,8,9,11,13,11,11,11,12,11,12,6,5,7,6,3,4,5,2,6,10,13,9,7,9,11,15,13,12,16,18,16,21,24,-1,-1,-1,-1,-1,-1,-1,-1,-1,-1,-1,-1,-1,-1,-1,-1,-1,-1,-1,-1,-1,-1,-1,-1,-1,-1,-1,-1,-1,-1,-1,-1,-1,-1,-1,-1,-1,-1,-1,-1,-1,-1,-1,-1,-1,-1,-1,-1,-1,-1,-1,-1,-1,-1,-1,-1,-1,-1
-1,-1,-1,-1,-1,-1,-1,-1,-1,-1,-1,-1,-1,-1,-1,-1,-1,-1,-1,-1,-1,-1,-1,-1,-1,-1,-1,-1,-1,-1,-1,-1,-1,-1,-1,-1,-1,2,3,5,8,9,9,8,9,8,7,8,7,7,7,6,4,4,4,4,4,4,2,0,0,0,1,2,3,4,3,1,0,0,0,0,0,0,0,0,0,0,0,0,1,2,2,3,3,1,3,3,2,3,4,3,3,4,3,2,2,2,3,3,3,5,6,5,4,5,3,4,4,3,2,1,0,1,2,5,5,6,4,6,6,5,3,2,5,4,7,11,9,7,5,2,2,3,4,2,2,3,4,3,2,4,5,4,5,4,2,2,4,4,2,2,1,0,0,0,0,0,1,2,2,1,1,3,3,3,3,3,1,3,3,1,3,3,1,0,0,1,1,1,0,1,1,1,6,8,7,6,4,4,3,1,0,2,4,5,6,6,6,5,4,7,8,8,7,10,8,8,7,9,8,5,7,8,8,7,10,8,10,11,8,4,3,4,5,6,3,2,1,1,4,2,3,5,5,4,8,10,8,7,7,7,8,10,10,10,11,9,8,8,8,9,8,8,9,8,4,4,3,3,2,5,7,7,5,5,6,6,7,7,7,7,3,4,3,3,4,4,3,4,3,4,4,3,2,5,6,6,6,5,2,0,0,0,0,0,1,3,3,4,3,0,0,1,3,4,3,3,4,3,1,2,4,2,4,1,3,3,1,2,4,4,4,3,1,0,0,0,0,1,2,3,5,6,6,9,10,13,14,12,13,14,12,7,3,5,6,6,6,5,5,4,4,3,4,4,3,4,3,3,3,1,1,2,2,1,0,0,0,0,0,2,3,3,4,6,5,6,6,6,5,6,6,6,4,4,4,4,2,1,3,4,5,2,4,3,1,2,4,3,3,3,3,2,3,4,2,1,1,1,1,3,4,3,4,4,4,6,9,10,13,15,17,16,15,15,11,8,6,5,5,3,2,1,8,11,15,14,17,18,18,14,11,7,12,15,12,4,2,2,4,3,1,4,2,3,3,3,3,2,4,5,7,7,8,10,12,11,11,11,11,11,10,6,4,5,5,4,1,4,3,4,10,13,9,8,9,13,14,13,10,15,14,12,22,26,23,-1,-1,-1,-1,-1,-1,-1,-1,-1,-1,-1,-1,-1,-1,-1,-1,-1,-1,-1,-1,-1,-1,-1,-1,-1,-1,-1,-1,-1,-1,-1,-1,-1,-1,-1,-1,-1,-1,-1,-1,-1,-1,-1,-1,-1,-1,-1,-1,-1,-1,-1,-1,-1,-1,-1,-1,-1
-1,-1,-1,-1,-1,-1,-1,-1,-1,-1,-1,-1,-1,-1,-1,-1,-1,-1,-1,-1,-1,-1,-1,-1,-1,-1,-1,-1,-1,-1,-1,-1,-1,-1,-1,-1,-1,2,4,4,7,9,8,9,9,8,8,9,8,7,8,5,4,6,6,6,4,3,2,2,1,1,3,4,3,2,1,0,1,2,3,3,3,2,1,0,0,0,0,1,3,4,4,3,2,2,4,3,4,3,2,2,4,1,0,0,0,0,1,2,4,3,2,4,3,2,3,3,4,4,4,7,8,10,8,10,7,7,5,7,5,5,3,4,4,8,8,11,10,8,5,4,4,4,4,5,5,4,4,4,4,3,3,5,5,3,4,3,2,2,1,1,1,0,1,2,2,1,2,4,4,3,1,3,4,4,2,3,2,4,2,2,4,1,1,1,1,0,0,1,2,2,2,3,4,5,5,4,3,2,1,0,0,1,3,6,6,6,5,5,6,4,4,4,6,7,8,8,7,4,5,3,4,4,4,4,5,4,7,9,7,5,5,6,5,3,4,4,3,1,4,3,4,2,3,6,10,8,7,7,5,5,11,13,10,9,9,9,9,8,8,9,9,7,9,9,6,4,4,1,0,3,6,6,4,4,6,6,7,9,8,7,4,2,3,4,6,5,2,2,2,4,3,3,2,5,8,7,4,4,3,0,0,0,0,0,1,2,4,4,2,2,3,4,3,1,0,0,1,3,3,2,4,2,3,3,2,4,1,0,1,2,2,1,0,1,2,3,2,1,1,3,4,6,7,9,10,14,14,13,14,12,9,4,1,4,4,4,5,5,2,3,3,3,2,1,0,1,3,4,5,7,6,5,3,3,3,3,3,3,2,2,4,5,7,7,6,7,6,7,7,4,6,6,4,4,3,4,4,4,3,4,3,4,2,1,0,1,2,3,3,4,4,5,5,3,4,3,2,4,2,5,6,4,4,4,6,10,12,17,17,18,15,14,13,12,11,10,6,2,1,0,0,0,3,8,9,14,15,19,15,14,14,12,17,15,9,4,2,2,4,2,2,4,1,3,3,3,3,5,5,4,5,6,7,9,10,11,11,11,11,11,12,8,3,5,4,3,3,4,4,4,8,12,12,8,9,11,13,13,14,14,12,9,18,27,25,-1,-1,-1,-1,-1,-1,-1,-1,-1,-1,-1,-1,-1,-1,-1,-1,-1,-1,-1,-1,-1,-1,-1,-1,-1,-1,-1,-1,-1,-1,-1,-1,-1,-1,-1,-1,-1,-1,-1,-1,-1,-1,-1,-1,-1,-1,-1,-1,-1,-1,-1,-1,-1,-1,-1,-1,-1
-1,-1,-1,-1,-1,-1,-1,-1,-1,-1,-1,-1,-1,-1,-1,-1,-1,-1,-1,-1,-1,-1,-1,-1,-1,-1,-1,-1,-1,-1,-1,-1,-1,-1,-1,-1,-1,6,5,5,6,10,10,8,8,7,7,9,7,9,7,6,8,9,7,6,5,5,5,4,4,3,5,2,0,0,1,2,4,4,3,3,3,4,2,0,0,0,1,3,3,1,1,1,1,3,4,4,1,0,1,4,2,0,0,0,0,0,2,4,2,3,4,3,4,4,3,3,4,6,8,12,14,13,13,13,9,8,8,7,4,3,3,3,6,9,11,12,11,10,8,8,7,6,7,10,7,7,6,6,6,4,4,6,6,5,2,3,4,3,3,3,2,2,3,4,4,3,2,4,3,3,1,3,4,4,4,3,3,3,1,3,3,0,1,2,2,3,2,1,3,2,2,5,6,7,6,2,3,3,3,3,3,4,4,6,6,6,6,4,6,5,3,3,4,5,7,7,6,1,4,4,4,4,4,3,3,4,7,7,7,6,4,6,5,3,3,2,3,3,4,4,2,2,4,5,7,8,8,7,3,4,9,13,12,9,8,9,8,8,9,8,8,9,10,9,7,6,3,2,1,3,4,4,4,5,6,6,9,8,10,10,5,2,1,5,6,5,2,1,2,4,4,4,3,6,8,7,4,4,3,0,0,0,0,0,2,4,4,4,4,4,3,2,1,0,1,1,1,1,3,4,3,4,3,3,3,3,3,1,1,2,2,1,1,3,4,3,3,2,3,3,5,9,8,12,13,16,13,15,12,10,9,2,4,3,4,3,5,5,2,0,0,0,0,0,0,1,2,4,6,7,8,8,8,8,8,8,8,7,6,7,8,8,8,6,9,8,5,5,2,3,5,5,4,5,5,3,3,2,2,4,2,4,2,1,0,1,1,1,2,4,4,6,6,5,4,4,4,2,5,6,7,6,4,6,10,15,17,22,22,22,18,12,8,8,12,12,9,1,0,1,2,3,2,1,3,8,9,15,9,8,11,13,12,10,5,3,4,4,3,2,4,2,1,4,2,4,3,5,6,5,3,4,6,8,12,13,11,11,11,12,11,8,3,5,5,2,3,4,3,2,6,12,12,9,9,9,12,14,16,18,9,7,14,25,25,-1,-1,-1,-1,-1,-1,-1,-1,-1,-1,-1,-1,-1,-1,-1,-1,-1,-1,-1,-1,-1,-1,-1,-1,-1,-1,-1,-1,-1,-1,-1,-1,-1,-1,-1,-1,-1,-1,-1,-1,-1,-1,-1,-1,-1,-1,-1,-1,-1,-1,-1,-1,-1,-1,-1,-1,-1
-1,-1,-1,-1,-1,-1,-1,-1,-1,-1,-1,-1,-1,-1,-1,-1,-1,-1,-1,-1,-1,-1,-1,-1,-1,-1,-1,-1,-1,-1,-1,-1,-1,-1,-1,-1,-1,4,4,8,8,9,10,9,9,7,9,8,9,9,10,7,8,9,8,6,6,7,6,6,5,6,5,2,0,0,1,3,2,1,1,0,0,2,4,1,0,1,3,3,1,0,0,0,1,4,4,3,0,0,2,4,1,0,0,0,0,0,3,3,4,4,5,5,7,7,7,9,8,12,13,14,16,15,14,14,13,13,12,9,9,9,11,10,13,14,12,11,12,10,9,9,9,8,8,7,10,8,7,7,7,6,4,5,6,6,5,6,7,7,6,4,4,3,3,1,1,3,4,3,3,2,1,2,4,3,2,2,4,1,0,3,3,0,1,1,2,4,3,1,3,3,3,5,7,7,5,4,3,3,3,3,3,2,3,5,5,5,5,3,1,0,0,2,4,6,6,1,4,2,3,4,4,4,4,4,5,6,8,7,7,4,2,4,3,2,4,4,3,4,3,4,1,3,4,5,6,7,9,5,5,7,11,13,11,9,8,8,8,8,8,8,8,7,11,12,10,8,6,4,2,3,4,4,4,4,4,5,6,9,11,7,4,3,1,3,4,4,3,3,4,3,3,3,3,5,7,7,6,4,2,0,1,2,2,1,3,4,4,4,4,2,1,0,0,1,3,3,4,2,1,2,4,4,4,4,4,2,4,3,3,4,4,2,2,4,1,2,4,2,4,4,8,12,12,13,13,16,16,11,10,10,7,5,4,4,3,3,3,4,2,2,3,3,2,2,2,5,5,4,4,4,6,7,8,8,9,9,9,8,8,9,9,9,10,8,8,8,4,2,2,4,2,3,4,6,6,4,4,3,2,4,1,2,4,2,1,3,3,2,5,7,6,7,8,5,4,5,6,3,5,7,7,6,4,7,14,16,18,22,22,21,21,11,11,9,13,11,7,2,0,2,4,4,5,6,8,12,12,12,9,1,7,8,7,4,2,4,4,3,3,4,2,1,2,4,2,4,4,4,4,3,3,4,4,6,12,13,13,11,12,11,11,7,1,5,6,5,3,3,7,6,10,14,14,13,8,8,14,14,19,21,11,5,14,22,24,-1,-1,-1,-1,-1,-1,-1,-1,-1,-1,-1,-1,-1,-1,-1,-1,-1,-1,-1,-1,-1,-1,-1,-1,-1,-1,-1,-1,-1,-1,-1,-1,-1,-1,-1,-1,-1,-1,-1,-1,-1,-1,-1,-1,-1,-1,-1,-1,-1,-1,-1,-1,-1,-1,-1,-1,-1
-1,-1,-1,-1,-1,-1,-1,-1,-1,-1,-1,-1,-1,-1,-1,-1,-1,-1,-1,-1,-1,-1,-1,-1,-1,-1,-1,-1,-1,-1,-1,-1,-1,-1,-1,-1,-1,8,7,10,9,9,10,9,11,9,11,10,9,10,10,10,8,11,9,8,6,6,6,6,5,5,6,6,3,2,1,3,3,3,2,0,0,1,4,2,0,2,4,1,0,0,1,2,4,3,4,2,1,2,4,2,0,0,1,2,5,6,9,8,8,6,9,9,9,10,11,14,15,17,17,15,15,15,15,16,16,15,14,14,13,13,15,14,14,13,13,10,12,10,9,9,9,9,8,7,5,5,4,6,5,3,4,4,5,6,6,8,8,8,7,5,4,2,1,0,0,1,2,5,4,1,1,3,2,4,1,3,3,0,0,2,4,1,0,1,3,3,3,1,1,2,5,7,7,7,4,1,0,0,1,2,2,2,3,4,1,3,2,2,1,0,0,3,4,4,5,4,3,1,3,6,6,6,4,6,7,8,8,10,8,5,4,6,6,3,4,4,4,3,2,4,2,3,7,8,6,6,6,4,1,5,12,14,13,9,8,7,8,6,9,10,9,7,10,12,13,10,5,3,3,3,3,3,4,4,4,5,7,8,11,10,5,3,3,3,4,4,4,4,1,0,1,2,5,6,6,5,5,4,1,0,2,4,4,3,3,4,4,4,3,4,4,3,2,3,4,2,2,4,4,3,3,4,6,6,5,5,3,2,4,1,2,4,4,2,1,4,2,4,5,5,9,11,14,13,13,14,14,8,9,7,9,6,3,2,3,3,3,3,2,4,3,3,4,5,5,6,6,4,4,4,4,4,6,7,8,8,8,8,9,9,8,9,9,8,8,4,3,1,4,2,3,3,3,5,5,5,4,4,2,4,2,1,4,2,2,4,3,4,5,9,11,10,9,5,5,8,7,4,4,6,7,7,7,9,11,18,18,18,15,11,12,10,11,13,15,13,6,1,0,3,4,4,5,6,8,9,12,12,6,4,3,1,2,2,2,5,5,2,1,1,0,0,3,3,4,3,4,3,4,4,3,6,6,4,9,14,14,11,10,13,11,8,4,5,6,6,4,4,9,11,14,21,19,14,8,6,12,14,19,18,12,8,13,23,23,-1,-1,-1,-1,-1,-1,-1,-1,-1,-1,-1,-1,-1,-1,-1,-1,-1,-1,-1,-1,-1,-1,-1,-1,-1,-1,-1,-1,-1,-1,-1,-1,-1,-1,-1,-1,-1,-1,-1,-1,-1,-1,-1,-1,-1,-1,-1,-1,-1,-1,-1,-1,-1,-1,-1,-1,-1
-1,-1,-1,-1,-1,-1,-1,-1,-1,-1,-1,-1,-1,-1,-1,-1,-1,-1,-1,-1,-1,-1,-1,-1,-1,-1,-1,-1,-1,-1,-1,-1,-1,-1,-1,-1,-1,9,9,11,9,9,7,9,14,13,9,9,10,10,10,9,9,10,11,8,4,1,0,1,4,6,7,7,6,5,6,4,6,4,5,1,0,0,2,4,2,4,2,1,2,3,4,4,2,2,4,1,3,4,2,1,2,5,6,6,7,8,10,10,10,12,14,14,11,15,16,22,21,18,17,13,10,13,14,18,17,17,16,19,18,16,15,14,12,13,10,12,10,9,9,9,9,9,9,7,6,5,4,3,2,1,1,2,6,8,8,9,7,5,8,7,4,4,2,1,2,3,3,5,6,1,2,4,3,2,1,3,3,0,0,1,4,2,0,0,1,1,1,0,0,2,5,6,7,7,2,0,0,0,2,4,4,3,2,3,4,4,3,4,3,3,2,3,4,4,2,2,1,3,5,6,7,8,8,8,9,13,11,9,8,6,6,7,7,6,6,5,6,3,3,1,3,5,7,8,6,6,4,3,0,3,12,14,13,9,7,7,7,6,9,10,9,9,10,13,14,11,6,5,2,4,3,4,3,3,4,4,6,8,10,9,6,4,4,4,4,4,4,3,0,1,3,4,4,5,6,5,3,3,0,0,3,3,1,2,6,7,6,3,3,2,2,3,4,3,2,0,0,1,2,4,4,4,6,6,6,5,3,4,2,0,1,2,2,1,3,3,2,4,6,7,11,15,14,13,13,12,10,7,7,7,6,3,1,3,3,3,3,1,4,2,0,1,2,6,6,6,6,4,4,4,4,4,6,7,6,4,6,7,8,8,8,8,7,7,7,4,3,5,4,5,4,4,3,3,3,6,5,3,4,4,2,3,3,1,4,2,4,6,8,8,9,9,9,6,5,8,6,2,2,3,4,6,10,11,13,19,19,12,9,7,8,11,13,18,19,17,6,1,1,4,4,3,2,5,5,6,7,8,5,3,5,8,7,7,9,6,8,4,1,0,0,0,3,4,4,4,2,2,4,2,6,7,7,6,8,13,14,13,9,13,14,12,6,5,7,6,5,3,9,11,13,23,20,14,8,4,8,13,18,18,14,10,13,21,23,21,-1,-1,-1,-1,-1,-1,-1,-1,-1,-1,-1,-1,-1,-1,-1,-1,-1,-1,-1,-1,-1,-1,-1,-1,-1,-1,-1,-1,-1,-1,-1,-1,-1,-1,-1,-1,-1,-1,-1,-1,-1,-1,-1,-1,-1,-1,-1,-1,-1,-1,-1,-1,-1,-1,-1,-1
-1,-1,-1,-1,-1,-1,-1,-1,-1,-1,-1,-1,-1,-1,-1,-1,-1,-1,-1,-1,-1,-1,-1,-1,-1,-1,-1,-1,-1,-1,-1,-1,-1,-1,-1,-1,-1,8,8,8,8,8,5,11,12,13,7,8,9,7,11,11,7,7,5,2,1,2,3,2,1,4,5,7,6,6,8,8,7,6,6,4,1,0,2,3,0,3,2,3,4,3,2,1,2,4,2,3,3,1,2,5,5,7,8,9,8,9,10,10,11,13,14,14,15,19,21,20,20,15,11,12,12,12,13,15,15,16,19,17,17,16,15,14,13,11,11,11,11,11,10,9,10,10,9,8,7,6,4,3,4,4,3,5,6,7,8,8,8,7,8,9,6,3,4,3,4,3,5,6,6,5,4,5,1,1,1,2,4,1,0,0,2,4,2,1,0,0,0,0,0,3,4,4,6,4,2,0,0,0,3,3,1,4,5,2,1,2,4,4,3,3,4,3,4,5,6,5,4,3,3,5,8,9,9,9,10,12,12,9,8,7,6,8,9,12,12,9,9,7,4,4,3,7,7,6,7,7,6,4,1,3,12,13,9,8,9,6,5,6,9,10,10,9,10,12,14,10,6,6,4,3,4,2,3,3,2,5,6,6,8,8,6,6,5,6,6,6,6,5,1,2,4,2,4,4,4,3,2,4,1,0,2,4,1,4,6,7,5,5,4,4,3,1,1,1,1,0,0,0,2,4,3,4,4,6,6,6,4,2,1,0,0,1,2,4,3,1,3,4,6,10,12,14,16,14,13,11,8,6,5,4,4,3,1,3,3,3,3,4,3,2,3,4,4,4,5,5,6,4,3,3,3,3,4,5,3,3,3,3,3,4,6,6,6,7,5,7,8,8,6,7,6,4,4,4,4,3,5,6,4,4,5,4,3,4,3,1,3,3,6,11,11,12,8,5,4,6,5,0,0,2,4,6,8,11,18,23,29,20,11,10,5,11,14,20,21,12,3,2,4,3,5,4,4,3,4,3,6,8,4,7,9,10,11,10,12,11,12,8,7,3,2,2,5,6,4,3,1,3,3,1,2,5,7,8,8,13,14,13,9,14,14,10,4,2,6,7,7,6,10,10,12,15,18,13,8,4,5,12,18,18,14,12,14,20,22,20,-1,-1,-1,-1,-1,-1,-1,-1,-1,-1,-1,-1,-1,-1,-1,-1,-1,-1,-1,-1,-1,-1,-1,-1,-1,-1,-1,-1,-1,-1,-1,-1,-1,-1,-1,-1,-1,-1,-1,-1,-1,-1,-1,-1,-1,-1,-1,-1,-1,-1,-1,-1,-1,-1,-1,-1
-1,-1,-1,-1,-1,-1,-1,-1,-1,-1,-1,-1,-1,-1,-1,-1,-1,-1,-1,-1,-1,-1,-1,-1,-1,-1,-1,-1,-1,-1,-1,-1,-1,-1,-1,-1,-1,4,4,6,6,5,6,9,17,13,8,5,6,8,10,12,7,7,7,7,7,4,4,5,4,1,2,5,5,6,5,7,7,7,6,6,5,3,4,3,2,4,3,4,1,1,2,4,4,2,2,4,1,3,4,5,6,9,10,10,11,11,12,13,14,14,15,14,15,17,20,16,15,14,14,16,15,17,15,15,14,14,15,16,16,15,15,15,13,13,12,10,12,12,9,10,10,12,11,10,9,8,4,4,3,4,4,5,5,3,4,7,7,7,9,11,9,5,5,6,3,1,2,5,4,2,5,5,3,3,3,1,4,2,0,0,1,2,4,2,0,1,2,2,1,3,4,4,5,6,6,3,3,3,4,2,2,5,5,5,6,6,4,4,6,5,3,6,4,6,7,7,6,4,4,6,8,9,9,9,10,12,10,8,8,8,8,9,10,11,12,11,8,8,5,5,4,7,5,4,6,8,6,4,2,3,10,13,9,8,7,7,7,6,9,10,9,10,12,12,11,10,7,7,6,4,3,1,2,4,2,5,6,7,7,7,6,6,6,7,6,6,5,4,4,3,3,3,4,4,3,3,1,3,3,1,1,4,3,5,7,7,5,4,3,3,3,3,1,0,0,0,0,0,3,3,0,1,4,6,8,8,3,3,1,0,0,2,4,2,1,0,3,4,7,9,11,14,15,15,12,8,5,6,5,5,5,2,1,4,2,2,3,2,2,4,3,3,4,3,4,4,5,4,2,1,2,2,5,1,2,3,3,3,3,4,4,4,7,6,7,8,9,9,8,7,6,4,2,1,3,3,4,5,4,4,6,6,3,2,1,1,3,3,6,7,11,11,8,5,4,4,3,1,1,1,4,2,5,6,12,22,28,23,16,12,6,10,18,22,19,8,3,4,3,5,4,4,3,4,2,2,10,14,13,13,17,17,15,15,14,15,13,11,8,3,4,5,6,6,5,3,4,4,2,1,1,5,9,8,9,13,14,12,12,15,16,12,6,4,7,10,11,12,10,10,6,10,14,14,9,5,5,13,18,15,15,15,16,20,22,21,-1,-1,-1,-1,-1,-1,-1,-1,-1,-1,-1,-1,-1,-1,-1,-1,-1,-1,-1,-1,-1,-1,-1,-1,-1,-1,-1,-1,-1,-1,-1,-1,-1,-1,-1,-1,-1,-1,-1,-1,-1,-1,-1,-1,-1,-1,-1,-1,-1,-1,-1,-1,-1,-1,-1,-1
-1,-1,-1,-1,-1,-1,-1,-1,-1,-1,-1,-1,-1,-1,-1,-1,-1,-1,-1,-1,-1,-1,-1,-1,-1,-1,-1,-1,-1,-1,-1,-1,-1,-1,-1,-1,-1,2,2,3,5,6,6,7,12,16,8,3,5,8,10,9,7,7,7,8,7,6,4,6,6,5,3,3,2,4,4,4,5,5,6,6,5,3,5,6,6,4,6,3,0,2,4,2,1,1,2,4,2,4,4,6,7,9,10,10,11,11,12,15,14,14,14,15,16,18,17,16,16,17,17,19,19,19,17,15,15,15,14,15,16,15,15,15,14,14,11,10,8,8,10,12,12,8,9,9,9,9,8,6,4,4,4,2,1,3,4,8,8,7,10,10,8,8,7,7,5,2,3,3,1,1,5,5,4,4,3,1,3,3,0,0,0,0,3,3,0,1,4,4,1,3,4,3,5,5,4,3,3,4,3,2,4,3,2,5,4,6,6,6,7,7,6,7,7,7,8,8,9,8,9,7,8,9,10,12,12,12,9,8,8,8,9,9,8,8,9,7,7,6,6,6,4,6,5,6,6,8,6,3,3,3,9,10,8,7,7,7,6,7,7,9,8,8,11,11,10,9,6,7,6,3,1,0,1,2,4,3,5,6,7,7,6,6,6,7,7,6,5,5,5,3,4,3,6,5,3,3,0,1,3,4,2,3,4,4,4,4,4,2,2,3,3,3,3,1,0,0,0,0,3,3,0,0,1,5,10,7,2,3,3,1,0,3,3,0,0,0,3,4,8,10,14,15,14,11,9,6,4,4,4,5,5,1,2,4,2,0,0,0,3,3,2,4,2,2,5,5,2,3,5,2,4,7,8,2,4,3,4,3,3,2,2,5,7,6,7,7,8,8,7,6,3,4,4,2,2,4,3,4,4,4,5,5,4,3,2,1,1,3,4,4,5,7,7,5,2,4,2,3,3,4,3,5,3,4,6,11,23,24,25,18,13,14,20,21,15,6,2,3,4,3,5,3,3,1,0,4,11,18,19,20,21,19,19,18,15,16,13,12,8,2,1,3,6,6,6,3,2,1,0,0,0,3,6,9,13,14,14,12,12,15,15,13,4,5,9,11,13,11,11,10,5,9,13,12,10,8,3,12,15,14,14,14,15,20,22,22,-1,-1,-1,-1,-1,-1,-1,-1,-1,-1,-1,-1,-1,-1,-1,-1,-1,-1,-1,-1,-1,-1,-1,-1,-1,-1,-1,-1,-1,-1,-1,-1,-1,-1,-1,-1,-1,-1,-1,-1,-1,-1,-1,-1,-1,-1,-1,-1,-1,-1,-1,-1,-1,-1,-1,-1
-1,-1,-1,-1,-1,-1,-1,-1,-1,-1,-1,-1,-1,-1,-1,-1,-1,-1,-1,-1,-1,-1,-1,-1,-1,-1,-1,-1,-1,-1,-1,-1,-1,-1,-1,-1,-1,4,4,6,6,5,4,8,11,12,7,5,6,11,11,7,6,7,5,3,3,4,4,5,6,6,4,4,4,6,8,6,4,4,5,5,4,6,5,7,8,8,9,5,1,2,4,1,2,4,2,3,5,6,5,7,9,12,11,10,11,13,15,13,15,15,17,16,17,17,15,15,17,18,17,18,20,19,18,16,17,16,15,14,15,15,15,16,15,14,13,13,13,13,13,12,12,10,9,9,9,10,11,11,9,7,5,5,5,5,8,7,6,9,9,10,9,8,8,6,4,4,5,6,5,4,4,5,4,1,4,1,3,3,0,0,1,2,6,3,3,3,4,3,1,3,4,4,3,5,3,4,4,4,4,3,3,2,3,3,4,4,4,4,6,7,7,7,9,9,9,10,12,10,9,8,6,9,11,9,11,9,8,8,8,9,9,9,9,8,9,9,8,6,5,6,4,5,5,3,6,6,5,3,3,3,7,9,10,7,9,7,6,5,8,9,8,9,11,11,10,8,5,5,4,4,2,0,0,0,3,3,5,6,6,7,7,6,6,6,6,5,4,5,6,6,4,6,7,8,5,6,3,2,1,2,4,3,5,6,6,4,3,0,0,1,4,2,3,3,1,0,0,0,3,3,0,0,1,4,8,8,3,1,3,3,1,3,3,0,0,0,3,4,8,11,14,15,14,11,12,6,3,4,4,4,3,2,4,2,1,1,2,2,2,4,3,3,0,3,4,4,4,6,6,6,4,7,7,4,3,2,4,2,0,0,3,4,4,5,7,7,5,3,3,4,4,3,4,5,5,4,4,4,4,4,4,3,3,3,4,4,3,3,4,4,4,6,3,3,4,3,3,3,2,2,6,5,4,4,4,7,15,20,23,23,20,19,22,17,12,5,3,3,2,6,4,3,2,2,2,6,13,23,28,23,22,17,15,14,13,13,16,14,9,3,0,3,4,4,4,1,0,0,0,0,0,3,4,8,11,14,15,14,10,12,14,12,6,5,7,10,12,12,11,13,8,7,9,11,10,9,6,12,15,14,14,14,14,19,22,21,-1,-1,-1,-1,-1,-1,-1,-1,-1,-1,-1,-1,-1,-1,-1,-1,-1,-1,-1,-1,-1,-1,-1,-1,-1,-1,-1,-1,-1,-1,-1,-1,-1,-1,-1,-1,-1,-1,-1,-1,-1,-1,-1,-1,-1,-1,-1,-1,-1,-1,-1,-1,-1,-1,-1,-1
-1,-1,-1,-1,-1,-1,-1,-1,-1,-1,-1,-1,-1,-1,-1,-1,-1,-1,-1,-1,-1,-1,-1,-1,-1,-1,-1,-1,-1,-1,-1,-1,-1,-1,-1,-1,-1,5,8,11,8,5,6,8,9,9,6,5,8,10,8,7,3,5,5,2,2,4,4,3,4,5,4,4,6,7,7,7,6,4,2,1,4,4,4,2,4,10,7,4,4,2,4,2,4,2,3,1,8,8,9,11,12,15,13,14,13,14,15,16,15,16,18,17,17,14,11,10,11,13,14,18,19,19,17,16,16,16,16,15,15,15,15,16,15,14,13,11,13,13,11,10,11,10,10,10,10,11,12,12,9,8,7,10,10,7,7,9,7,6,6,8,10,10,8,9,6,4,6,7,6,4,6,4,3,3,3,0,3,3,0,1,4,5,5,5,3,3,4,5,5,3,6,4,6,6,5,4,4,3,3,4,4,4,3,4,4,4,5,5,4,6,7,8,9,9,8,9,11,9,7,4,4,4,4,5,6,6,7,8,8,8,8,9,9,8,7,9,9,6,6,6,4,6,4,6,5,4,3,4,2,2,5,8,10,10,9,6,6,7,11,12,10,8,8,9,8,6,5,2,4,4,3,0,0,0,3,3,4,4,4,6,6,8,7,4,4,3,5,5,6,7,7,7,9,9,8,5,3,4,3,1,4,2,5,7,7,6,4,1,0,0,2,4,1,3,4,3,3,3,4,2,0,0,2,4,7,8,4,2,1,4,2,2,4,1,0,0,3,4,9,14,14,12,13,13,13,7,3,3,3,4,4,3,5,1,0,2,4,4,2,4,3,4,1,3,4,4,3,3,7,8,6,6,7,7,5,3,2,3,1,2,4,4,4,4,4,3,0,0,0,1,3,4,4,5,5,4,4,4,4,4,4,4,4,4,3,4,4,4,4,3,2,2,2,3,2,3,3,1,0,0,3,4,4,4,4,5,8,9,17,20,21,17,13,13,8,5,3,3,4,4,4,3,4,4,3,6,14,26,31,18,14,13,13,11,13,14,14,13,8,3,0,3,4,3,3,4,2,1,0,1,2,4,4,8,10,14,14,12,13,14,13,8,3,6,7,8,9,10,11,12,6,5,8,10,10,10,9,10,14,16,12,14,14,17,18,18,-1,-1,-1,-1,-1,-1,-1,-1,-1,-1,-1,-1,-1,-1,-1,-1,-1,-1,-1,-1,-1,-1,-1,-1,-1,-1,-1,-1,-1,-1,-1,-1,-1,-1,-1,-1,-1,-1,-1,-1,-1,-1,-1,-1,-1,-1,-1,-1,-1,-1,-1,-1,-1,-1,-1,-1
-1,-1,-1,-1,-1,-1,-1,-1,-1,-1,-1,-1,-1,-1,-1,-1,-1,-1,-1,-1,-1,-1,-1,-1,-1,-1,-1,-1,-1,-1,-1,-1,-1,-1,-1,-1,-1,6,7,11,11,5,3,6,7,6,7,6,11,12,10,7,5,2,2,4,2,4,3,2,3,2,3,3,4,7,6,6,4,4,6,4,2,0,2,2,4,8,7,3,2,4,4,4,3,2,4,5,12,12,10,13,14,15,16,14,14,14,15,17,16,16,17,18,15,10,11,10,12,14,17,16,16,19,16,16,16,15,16,15,15,15,14,15,15,15,14,14,11,10,9,9,11,10,10,10,10,11,12,11,12,12,11,13,13,9,8,6,7,7,6,7,8,10,9,9,4,3,3,6,7,6,5,4,1,2,4,1,3,3,0,2,5,6,2,1,1,3,4,6,6,6,8,7,6,7,7,6,4,4,3,4,6,6,7,4,4,4,6,6,4,4,6,7,7,7,7,6,6,6,5,6,4,4,4,5,5,4,4,5,8,7,6,6,7,7,7,10,7,3,6,3,3,5,7,4,4,5,4,3,1,1,4,8,10,10,7,5,6,8,11,11,12,9,7,8,7,7,6,5,3,4,3,0,0,1,4,3,4,4,4,4,4,8,8,4,4,3,2,4,5,8,8,8,9,10,11,8,4,1,4,3,4,1,4,6,7,6,3,3,1,0,1,4,2,1,2,3,3,3,1,2,0,1,4,2,6,8,3,4,3,3,3,1,4,2,0,0,3,6,11,13,14,11,13,14,13,8,4,1,4,2,2,6,5,2,1,4,2,2,4,2,4,4,2,2,5,6,5,3,7,9,9,8,7,6,5,4,2,4,4,4,3,4,4,4,5,5,1,0,0,2,4,3,4,4,4,4,4,4,4,3,3,4,3,2,3,3,3,2,4,1,0,0,0,0,2,4,1,0,1,2,4,4,4,4,4,6,7,7,6,12,16,14,6,6,6,2,4,4,5,4,4,3,1,1,2,6,13,26,26,15,9,7,12,11,13,17,18,12,6,2,1,3,4,3,1,2,4,2,1,3,4,2,3,8,9,13,13,13,12,14,14,8,2,5,8,7,7,6,8,10,7,5,7,8,11,11,12,13,15,15,15,12,15,17,16,15,14,-1,-1,-1,-1,-1,-1,-1,-1,-1,-1,-1,-1,-1,-1,-1,-1,-1,-1,-1,-1,-1,-1,-1,-1,-1,-1,-1,-1,-1,-1,-1,-1,-1,-1,-1,-1,-1,-1,-1,-1,-1,-1,-1,-1,-1,-1,-1,-1,-1,-1,-1,-1,-1,-1,-1
-1,-1,-1,-1,-1,-1,-1,-1,-1,-1,-1,-1,-1,-1,-1,-1,-1,-1,-1,-1,-1,-1,-1,-1,-1,-1,-1,-1,-1,-1,-1,-1,-1,-1,-1,-1,-1,9,8,11,9,1,1,7,7,7,9,9,14,14,11,7,2,1,2,3,1,2,3,3,2,2,0,0,2,4,1,1,3,5,7,4,5,4,7,4,4,7,6,3,3,6,5,2,4,2,3,7,13,13,12,13,14,14,12,11,13,16,15,17,16,18,17,16,15,14,16,18,22,21,19,19,18,15,16,17,18,15,15,15,15,15,14,14,14,15,15,16,15,15,14,11,11,10,10,10,11,12,11,11,13,12,10,11,13,10,7,4,4,4,4,6,8,8,9,10,9,4,3,5,7,8,7,3,1,1,3,3,3,3,1,4,4,3,1,2,4,3,4,6,6,6,7,8,8,7,6,4,4,4,7,6,7,8,7,6,4,6,7,6,4,4,4,4,6,8,8,5,4,4,4,5,7,7,6,6,6,4,4,4,7,7,4,4,4,2,6,8,9,5,2,4,5,4,3,2,2,5,5,1,1,1,1,6,8,10,7,8,5,10,12,11,10,8,7,7,7,6,6,5,4,4,3,0,0,2,4,3,4,4,3,4,4,7,8,6,4,3,1,3,6,7,7,7,9,12,11,11,8,4,3,4,3,2,4,4,6,5,3,3,3,1,0,3,3,1,2,3,3,4,3,4,3,4,3,1,4,4,4,2,4,4,3,0,2,4,1,1,4,6,9,12,13,11,13,13,13,8,3,2,3,1,1,3,4,3,2,4,1,2,3,3,4,3,4,1,5,6,5,1,5,10,13,9,5,4,6,6,4,4,4,4,4,2,2,4,5,5,2,0,0,3,3,0,1,2,4,4,4,4,4,2,0,1,4,2,0,0,2,4,2,1,1,1,1,1,4,2,0,1,3,4,3,4,4,4,4,5,7,8,6,5,5,7,9,7,3,7,9,7,7,5,2,1,0,1,4,5,12,25,26,18,11,9,14,12,14,19,19,12,7,3,3,3,5,5,1,0,3,3,4,4,2,2,5,8,10,13,11,11,13,15,15,9,2,6,5,7,8,7,9,12,5,1,6,7,12,11,12,12,13,15,14,15,18,16,14,14,13,-1,-1,-1,-1,-1,-1,-1,-1,-1,-1,-1,-1,-1,-1,-1,-1,-1,-1,-1,-1,-1,-1,-1,-1,-1,-1,-1,-1,-1,-1,-1,-1,-1,-1,-1,-1,-1,-1,-1,-1,-1,-1,-1,-1,-1,-1,-1,-1,-1,-1,-1,-1,-1,-1,-1
-1,-1,-1,-1,-1,-1,-1,-1,-1,-1,-1,-1,-1,-1,-1,-1,-1,-1,-1,-1,-1,-1,-1,-1,-1,-1,-1,-1,-1,-1,-1,-1,-1,-1,-1,-1,-1,9,11,12,9,4,1,7,9,9,10,10,12,14,8,5,4,2,2,4,1,2,3,4,2,4,1,0,1,3,3,2,2,1,2,4,5,6,4,6,4,6,6,6,7,10,7,6,5,2,7,9,12,13,12,13,13,13,12,12,15,16,17,19,20,20,20,17,17,21,24,22,22,24,20,20,18,17,16,15,15,16,15,14,14,13,13,13,12,14,14,15,15,15,14,13,11,12,14,14,13,12,10,8,9,10,13,13,13,10,7,4,3,5,6,6,6,7,9,9,7,4,3,3,5,6,7,5,4,1,1,4,4,3,2,4,5,3,4,4,2,4,4,6,5,4,4,6,9,10,8,6,4,6,5,6,7,6,4,4,6,7,7,6,4,4,4,4,6,6,5,4,5,4,6,7,9,8,6,5,5,3,3,2,1,1,2,4,4,3,5,8,9,9,5,4,6,6,4,4,4,4,3,0,2,3,3,5,8,7,9,8,5,8,10,13,11,8,7,7,6,7,7,6,6,5,6,3,3,4,2,4,4,3,3,3,7,7,7,7,6,6,4,4,4,6,8,8,7,9,13,10,8,5,4,4,4,3,4,3,3,3,3,3,3,4,3,4,2,2,4,3,3,2,2,2,4,4,2,1,1,3,4,5,3,4,3,2,3,3,1,2,4,6,12,13,13,11,13,11,13,10,5,3,2,2,2,5,5,2,4,2,3,3,3,4,3,4,4,2,3,4,4,3,4,10,12,9,8,7,9,8,6,4,4,4,3,3,3,3,4,4,3,0,0,3,3,1,2,5,5,4,4,4,4,3,0,1,4,2,0,0,3,3,0,0,2,4,2,3,3,1,0,2,4,2,3,3,3,4,3,4,5,7,5,6,5,5,6,6,8,9,10,11,6,2,1,1,1,3,4,5,9,22,28,20,15,14,17,14,15,15,14,11,8,4,3,3,5,5,2,1,5,4,4,6,3,1,5,6,11,12,10,10,13,16,14,9,2,5,5,6,8,10,12,12,7,4,6,8,13,14,13,10,13,14,14,16,18,20,14,13,12,6,-1,-1,-1,-1,-1,-1,-1,-1,-1,-1,-1,-1,-1,-1,-1,-1,-1,-1,-1,-1,-1,-1,-1,-1,-1,-1,-1,-1,-1,-1,-1,-1,-1,-1,-1,-1,-1,-1,-1,-1,-1,-1,-1,-1,-1,-1,-1,-1,-1,-1,-1,-1,-1,-1
-1,-1,-1,-1,-1,-1,-1,-1,-1,-1,-1,-1,-1,-1,-1,-1,-1,-1,-1,-1,-1,-1,-1,-1,-1,-1,-1,-1,-1,-1,-1,-1,-1,-1,-1,-1,6,8,13,11,9,6,4,10,11,11,10,10,11,10,6,1,3,3,3,3,2,4,3,1,2,3,2,0,0,1,3,4,4,2,1,2,2,2,2,3,3,3,6,7,8,7,10,8,8,7,10,10,11,12,12,14,14,13,14,15,15,16,17,18,20,19,19,18,19,20,21,24,20,20,18,19,17,16,15,14,15,16,15,14,14,13,13,11,13,11,11,11,12,10,12,11,13,14,14,14,13,12,13,10,9,9,11,11,12,10,10,11,8,5,6,6,6,7,9,8,9,5,2,3,3,1,2,5,4,3,1,3,4,3,5,5,4,5,2,2,4,4,5,2,2,3,3,3,7,8,7,4,4,6,5,6,5,4,6,7,8,7,6,4,6,7,8,8,8,6,5,5,7,6,6,8,8,7,6,3,2,2,1,0,0,0,0,3,4,3,2,5,8,6,4,4,5,5,3,2,2,5,3,2,2,4,3,2,6,7,7,6,8,8,9,13,13,8,4,5,8,8,6,7,6,4,4,3,3,2,3,3,4,2,3,4,4,7,6,6,6,3,2,3,4,4,5,5,8,11,12,11,8,7,4,4,4,4,3,4,3,4,2,3,3,2,3,2,2,4,2,0,0,0,0,2,4,3,3,1,0,2,5,5,4,4,4,4,3,2,1,4,2,6,9,10,13,11,13,11,9,7,5,4,3,2,4,4,4,2,4,4,4,4,6,6,7,4,4,3,4,4,4,3,1,6,8,8,7,9,11,9,6,4,4,4,4,4,4,4,6,6,3,3,3,4,2,3,4,4,5,3,5,4,4,3,0,2,4,1,0,0,3,3,1,1,2,4,3,4,1,0,0,3,3,2,3,2,5,6,3,2,2,5,5,3,4,4,4,7,12,12,11,9,7,6,3,2,2,4,3,3,7,19,25,22,17,17,18,15,11,10,13,14,8,4,4,2,3,4,3,4,4,4,3,2,3,4,4,8,11,9,9,9,13,16,16,9,3,4,4,5,9,9,12,14,8,5,6,8,13,14,13,9,11,13,15,16,20,20,14,13,10,6,-1,-1,-1,-1,-1,-1,-1,-1,-1,-1,-1,-1,-1,-1,-1,-1,-1,-1,-1,-1,-1,-1,-1,-1,-1,-1,-1,-1,-1,-1,-1,-1,-1,-1,-1,-1,-1,-1,-1,-1,-1,-1,-1,-1,-1,-1,-1,-1,-1,-1,-1,-1,-1,-1
-1,-1,-1,-1,-1,-1,-1,-1,-1,-1,-1,-1,-1,-1,-1,-1,-1,-1,-1,-1,-1,-1,-1,-1,-1,-1,-1,-1,-1,-1,-1,-1,-1,-1,-1,-1,3,4,9,10,10,11,9,10,12,13,11,10,10,8,5,0,2,4,3,3,3,3,1,4,4,2,3,0,0,0,1,3,2,4,2,0,2,4,2,2,3,3,4,4,4,5,6,6,7,7,7,11,11,11,13,14,13,15,16,17,16,16,16,16,16,16,15,12,12,14,16,19,17,16,14,15,15,16,16,15,14,14,15,14,11,14,13,14,11,11,11,12,11,11,11,11,11,14,14,16,15,16,15,13,14,13,11,10,11,11,13,15,10,7,6,6,6,8,8,9,7,4,5,4,2,3,3,4,5,4,2,4,4,3,6,7,5,2,4,4,2,3,3,2,2,1,0,0,2,5,6,4,4,6,8,8,7,4,6,8,7,6,4,6,7,8,7,8,7,7,6,6,7,6,5,5,3,3,4,3,4,4,2,0,0,0,0,3,4,4,2,5,8,6,3,4,4,3,3,4,5,4,5,5,4,2,2,3,4,6,8,7,7,8,11,13,14,10,6,5,9,10,9,6,7,4,4,3,2,4,3,3,3,1,3,3,5,6,7,7,6,3,1,3,3,4,1,0,5,8,10,9,8,8,5,3,4,6,6,3,6,3,4,4,4,5,3,4,4,2,1,0,0,0,0,2,4,4,3,1,0,2,4,5,5,4,4,4,2,1,2,4,1,7,10,10,13,11,11,13,9,7,7,6,3,4,4,4,1,3,3,6,8,7,5,9,6,4,4,4,4,3,4,3,2,5,6,6,7,7,9,8,6,4,4,4,4,4,6,7,8,5,5,4,4,4,4,3,2,4,1,1,6,6,2,3,2,2,4,3,3,2,2,4,4,3,4,3,4,3,0,0,0,3,3,2,4,4,6,6,5,4,6,2,3,3,4,4,7,9,11,13,10,7,10,8,3,3,3,3,2,4,4,13,20,17,15,15,17,13,6,4,14,15,9,2,2,1,3,6,5,4,4,2,4,3,2,2,5,11,12,9,8,9,13,17,16,8,3,3,5,6,9,9,11,15,11,9,7,8,11,15,14,11,11,12,14,16,19,20,18,13,11,8,-1,-1,-1,-1,-1,-1,-1,-1,-1,-1,-1,-1,-1,-1,-1,-1,-1,-1,-1,-1,-1,-1,-1,-1,-1,-1,-1,-1,-1,-1,-1,-1,-1,-1,-1,-1,-1,-1,-1,-1,-1,-1,-1,-1,-1,-1,-1,-1,-1,-1,-1,-1,-1,-1
-1,-1,-1,-1,-1,-1,-1,-1,-1,-1,-1,-1,-1,-1,-1,-1,-1,-1,-1,-1,-1,-1,-1,-1,-1,-1,-1,-1,-1,-1,-1,-1,-1,-1,-1,-1,4,6,8,9,11,14,14,11,11,12,12,8,8,6,3,0,1,4,1,4,4,2,1,2,2,3,2,0,0,0,0,2,3,2,3,3,3,5,3,2,4,4,4,6,8,8,6,7,7,5,9,13,13,15,14,13,14,17,17,16,13,14,15,16,14,14,13,12,15,15,17,18,15,16,17,18,20,18,18,20,18,15,14,14,14,13,14,14,13,13,13,13,13,12,11,11,9,10,12,16,17,17,14,14,15,14,14,13,10,12,15,14,12,11,8,6,6,9,10,10,10,6,8,7,5,3,2,5,5,4,4,4,4,3,4,5,5,4,2,1,0,5,5,4,4,2,1,2,3,5,8,8,8,8,7,7,7,6,5,5,4,4,4,4,6,5,3,4,4,5,5,4,6,3,2,1,0,0,1,1,1,4,2,0,0,0,0,2,4,3,4,5,8,6,4,4,4,4,4,4,5,4,3,5,5,2,1,3,3,4,8,8,4,7,10,13,17,15,10,6,9,10,9,6,6,5,5,3,4,2,3,3,1,0,3,3,5,5,6,7,7,5,1,3,4,7,5,3,8,7,10,9,7,6,5,2,4,6,5,5,4,4,4,3,5,4,3,2,1,0,0,0,0,0,0,1,2,2,1,1,2,6,4,4,5,3,3,2,4,3,2,4,1,7,10,13,12,12,10,10,8,7,8,7,5,4,4,1,2,6,5,7,5,2,4,5,7,7,6,6,5,3,4,3,2,4,1,5,7,6,6,6,6,6,7,7,6,4,4,7,7,4,4,4,3,3,2,2,4,2,1,3,5,6,2,2,4,4,4,4,3,4,2,2,2,2,2,4,1,4,1,0,0,3,3,5,5,4,5,5,6,7,8,7,5,2,3,4,7,11,12,15,10,11,12,7,3,3,2,4,2,3,6,11,16,16,12,12,11,6,4,6,14,14,7,2,0,1,5,7,7,5,3,4,3,2,1,4,5,9,9,9,8,9,14,18,16,12,7,4,5,7,10,8,12,18,14,11,7,9,12,14,16,12,10,14,14,18,20,21,20,15,14,11,-1,-1,-1,-1,-1,-1,-1,-1,-1,-1,-1,-1,-1,-1,-1,-1,-1,-1,-1,-1,-1,-1,-1,-1,-1,-1,-1,-1,-1,-1,-1,-1,-1,-1,-1,-1,-1,-1,-1,-1,-1,-1,-1,-1,-1,-1,-1,-1,-1,-1,-1,-1,-1,-1
-1,-1,-1,-1,-1,-1,-1,-1,-1,-1,-1,-1,-1,-1,-1,-1,-1,-1,-1,-1,-1,-1,-1,-1,-1,-1,-1,-1,-1,-1,-1,-1,-1,-1,-1,-1,6,7,7,8,11,14,15,13,9,7,10,6,5,4,3,0,1,4,3,2,2,1,0,0,2,4,1,1,1,1,1,4,2,2,2,3,6,3,1,2,6,6,6,9,10,10,10,10,10,8,12,15,16,17,15,16,17,16,16,16,15,17,17,16,15,14,12,17,18,18,18,18,20,21,19,20,21,21,20,20,20,18,19,18,18,15,15,14,13,11,14,14,15,11,9,9,9,9,9,8,13,14,14,14,15,14,14,12,11,11,12,13,14,11,9,6,6,9,11,12,9,6,7,8,6,3,2,2,5,6,6,4,4,5,6,7,6,2,1,0,1,6,6,2,3,6,4,4,3,6,7,9,9,8,7,6,4,3,2,2,4,3,4,4,3,3,4,4,3,3,2,4,3,4,2,1,1,2,3,3,4,3,1,0,0,0,0,1,3,4,3,6,8,8,5,5,4,4,4,4,4,4,3,3,5,6,2,4,4,4,7,8,6,8,10,13,14,14,11,8,9,10,9,6,6,7,6,2,1,2,4,1,0,1,5,4,4,5,4,6,6,5,2,1,4,7,8,8,11,9,8,8,6,4,5,6,2,4,4,4,3,3,2,4,3,4,2,0,0,0,0,0,0,0,0,0,0,1,2,4,4,3,5,3,3,3,3,0,1,4,3,3,1,7,10,9,10,11,12,12,9,8,9,9,8,5,1,4,5,6,6,5,5,2,3,7,8,7,6,6,5,4,4,3,1,4,3,5,6,3,6,6,6,5,8,8,7,4,3,3,4,3,2,2,3,3,4,4,2,1,2,4,3,3,2,2,3,3,3,4,3,2,4,1,0,0,0,3,3,3,3,1,0,3,4,5,7,5,6,7,9,10,10,8,4,1,4,2,8,9,13,13,12,11,11,6,3,4,1,3,3,4,3,7,14,11,6,7,10,10,8,8,18,14,7,2,1,4,6,7,6,4,3,2,4,4,4,7,7,6,8,9,9,9,11,15,15,13,8,4,3,8,9,7,9,14,10,7,8,7,10,15,15,12,11,14,15,19,22,21,17,15,13,11,-1,-1,-1,-1,-1,-1,-1,-1,-1,-1,-1,-1,-1,-1,-1,-1,-1,-1,-1,-1,-1,-1,-1,-1,-1,-1,-1,-1,-1,-1,-1,-1,-1,-1,-1,-1,-1,-1,-1,-1,-1,-1,-1,-1,-1,-1,-1,-1,-1,-1,-1,-1,-1,-1
-1,-1,-1,-1,-1,-1,-1,-1,-1,-1,-1,-1,-1,-1,-1,-1,-1,-1,-1,-1,-1,-1,-1,-1,-1,-1,-1,-1,-1,-1,-1,-1,-1,-1,-1,-1,-1,8,8,10,11,14,16,16,7,7,9,8,6,4,2,0,2,4,1,0,0,0,0,0,3,3,0,2,4,2,1,3,3,3,1,0,3,3,4,5,6,6,6,9,10,12,13,13,11,10,13,14,20,20,20,16,15,14,18,17,17,16,16,14,13,14,15,19,21,19,19,20,21,22,20,19,20,21,19,18,18,20,20,19,19,18,15,14,14,13,10,11,12,14,13,12,10,11,11,9,10,12,13,14,14,13,11,10,9,7,8,11,14,13,11,6,6,7,12,12,10,6,4,5,4,3,4,2,5,8,7,4,4,5,6,6,6,4,7,7,7,6,5,4,5,5,4,3,4,4,5,8,8,6,7,4,5,5,3,6,3,4,4,3,3,3,3,2,2,4,2,3,3,2,4,2,2,4,3,3,2,1,0,0,0,0,1,3,3,3,4,5,9,8,5,5,4,4,4,4,4,3,2,3,5,6,5,5,6,6,6,8,8,8,11,11,10,12,10,9,8,9,8,7,6,6,7,5,3,4,2,0,1,3,4,5,3,4,3,3,4,4,3,4,5,6,7,8,6,7,6,6,4,3,5,3,4,3,5,4,3,3,3,1,4,3,4,3,3,3,2,1,2,3,3,2,1,2,4,2,1,4,2,3,3,2,4,3,3,3,6,5,1,6,9,9,9,12,12,11,10,10,10,10,8,4,4,6,6,5,4,4,2,6,7,10,12,12,8,6,6,4,4,4,2,3,4,4,3,4,4,4,4,5,6,5,6,5,5,3,1,2,5,5,4,4,2,1,0,1,4,2,2,4,4,4,3,4,2,1,4,2,4,2,0,0,1,4,2,1,3,4,3,4,6,7,7,6,3,7,10,6,5,7,6,1,3,3,4,7,9,8,7,8,7,3,3,3,1,1,3,3,2,3,9,9,6,4,6,10,15,12,18,17,8,1,4,6,6,6,5,5,1,3,3,1,2,4,6,4,8,10,10,11,14,14,14,13,7,5,5,8,8,6,7,10,6,4,5,8,11,14,14,12,12,13,15,19,22,21,18,14,14,9,-1,-1,-1,-1,-1,-1,-1,-1,-1,-1,-1,-1,-1,-1,-1,-1,-1,-1,-1,-1,-1,-1,-1,-1,-1,-1,-1,-1,-1,-1,-1,-1,-1,-1,-1,-1,-1,-1,-1,-1,-1,-1,-1,-1,-1,-1,-1,-1,-1,-1,-1,-1,-1,-1
-1,-1,-1,-1,-1,-1,-1,-1,-1,-1,-1,-1,-1,-1,-1,-1,-1,-1,-1,-1,-1,-1,-1,-1,-1,-1,-1,-1,-1,-1,-1,-1,-1,-1,-1,-1,-1,8,10,9,6,9,17,19,9,8,8,7,7,5,2,0,3,3,0,0,0,0,0,0,2,4,1,2,4,2,1,2,2,1,0,0,3,4,5,7,7,7,6,9,10,14,16,7,8,6,13,15,23,23,18,13,13,15,18,18,16,17,16,15,15,14,14,16,19,17,19,20,17,20,19,19,18,16,18,17,18,17,17,18,19,19,18,17,16,15,15,14,17,16,15,14,14,11,13,11,11,11,11,13,12,11,10,10,11,9,8,9,10,14,15,9,10,11,12,14,14,7,4,3,3,3,3,3,5,8,7,4,4,6,6,7,7,8,7,8,7,4,6,3,3,4,4,4,4,5,6,6,5,5,3,4,6,5,3,3,6,2,1,0,0,0,0,0,1,4,2,3,3,0,3,3,3,3,0,0,0,0,0,0,1,2,4,3,3,5,6,7,9,10,7,4,4,4,4,4,4,5,5,4,6,7,6,6,7,8,10,11,9,10,13,14,11,11,11,9,10,10,9,5,6,6,5,4,3,2,1,0,1,3,3,4,2,4,4,4,4,4,4,5,5,4,4,4,4,6,5,4,4,3,2,4,2,4,3,4,4,2,4,2,2,4,3,3,3,3,4,3,4,3,3,4,3,2,4,1,1,3,2,3,3,1,2,3,3,6,7,6,1,5,9,9,8,9,11,10,11,12,13,9,8,6,5,6,6,2,2,4,4,8,11,11,14,11,7,8,7,4,4,3,4,4,6,6,4,3,5,6,6,5,2,0,1,5,3,1,2,4,4,5,4,5,5,3,2,2,3,2,1,2,2,1,0,3,3,1,4,2,2,4,2,1,2,4,1,0,1,2,3,2,6,7,6,3,3,7,8,4,4,5,4,2,3,2,5,9,8,6,6,4,2,3,4,4,2,2,4,2,4,3,7,10,7,7,8,14,21,20,18,13,5,2,5,6,6,5,2,3,2,2,4,1,0,3,4,6,9,12,12,11,11,14,13,11,6,5,6,6,6,6,8,12,7,4,5,7,10,16,15,10,13,14,16,18,20,18,15,14,13,11,-1,-1,-1,-1,-1,-1,-1,-1,-1,-1,-1,-1,-1,-1,-1,-1,-1,-1,-1,-1,-1,-1,-1,-1,-1,-1,-1,-1,-1,-1,-1,-1,-1,-1,-1,-1,-1,-1,-1,-1,-1,-1,-1,-1,-1,-1,-1,-1,-1,-1,-1,-1,-1,-1
-1,-1,-1,-1,-1,-1,-1,-1,-1,-1,-1,-1,-1,-1,-1,-1,-1,-1,-1,-1,-1,-1,-1,-1,-1,-1,-1,-1,-1,-1,-1,-1,-1,-1,-1,-1,-1,6,9,6,2,8,15,16,14,11,9,7,6,5,2,0,3,3,0,0,0,0,0,0,1,4,2,1,1,1,1,2,3,3,2,1,3,4,7,9,7,5,5,9,10,13,11,3,5,9,15,18,21,20,16,13,14,18,19,17,16,15,16,14,14,15,14,17,16,15,17,16,17,18,18,19,19,20,20,19,18,18,18,18,18,19,21,22,22,19,16,17,17,18,18,15,15,15,14,13,13,10,11,10,10,10,11,11,10,9,8,9,10,14,16,12,11,12,14,15,14,10,4,3,3,4,4,4,5,6,6,5,4,7,8,6,7,7,4,4,4,6,7,6,4,3,3,3,3,4,5,5,2,2,3,3,5,4,5,4,2,0,0,0,0,0,0,0,2,4,1,4,2,1,4,2,4,2,0,0,0,1,1,1,2,4,2,1,1,4,6,8,9,10,9,6,4,4,4,4,7,8,6,5,5,7,6,8,10,10,11,12,10,8,10,13,13,12,10,9,10,11,10,10,3,5,6,4,5,3,3,2,1,3,3,3,3,4,4,4,4,4,5,7,3,4,2,3,3,4,4,3,4,4,1,2,4,3,4,4,4,3,2,4,3,3,4,3,1,0,3,4,3,0,0,1,4,2,3,3,1,3,3,2,4,3,3,3,2,2,5,7,4,3,8,9,8,9,11,11,13,12,13,10,8,6,4,4,4,1,3,3,6,9,10,11,18,13,7,8,7,4,4,5,5,6,7,8,5,4,4,5,6,5,2,0,0,2,4,1,3,4,4,3,4,5,4,3,4,2,3,4,3,3,3,3,2,2,4,2,4,2,1,2,4,3,3,3,0,0,0,0,0,2,4,6,6,4,3,4,5,4,4,4,4,2,3,4,5,9,6,5,4,2,1,5,6,5,4,6,5,4,1,4,8,12,12,10,12,17,16,14,12,7,2,3,6,6,5,3,2,3,4,4,4,4,1,5,6,7,8,10,10,10,14,14,12,9,5,4,4,4,6,6,7,12,12,7,5,8,9,15,17,10,13,15,20,23,20,18,13,13,11,9,9,-1,-1,-1,-1,-1,-1,-1,-1,-1,-1,-1,-1,-1,-1,-1,-1,-1,-1,-1,-1,-1,-1,-1,-1,-1,-1,-1,-1,-1,-1,-1,-1,-1,-1,-1,-1,-1,-1,-1,-1,-1,-1,-1,-1,-1,-1,-1,-1,-1,-1,-1,-1,-1
-1,-1,-1,-1,-1,-1,-1,-1,-1,-1,-1,-1,-1,-1,-1,-1,-1,-1,-1,-1,-1,-1,-1,-1,-1,-1,-1,-1,-1,-1,-1,-1,-1,-1,-1,-1,6,7,9,5,4,5,11,16,16,14,12,8,5,4,2,1,4,2,0,0,0,0,0,0,0,2,4,3,3,3,4,4,4,3,4,4,4,4,8,8,4,4,10,13,11,10,7,2,5,13,18,19,19,17,16,14,18,19,19,19,17,17,16,15,14,13,14,17,15,18,16,15,17,19,18,19,18,22,21,19,18,18,19,19,19,18,22,25,23,21,18,17,16,17,17,15,16,15,14,14,14,13,12,12,10,10,12,11,10,11,10,7,9,13,14,12,10,10,13,13,14,12,6,4,4,4,4,6,8,8,6,5,7,10,10,8,7,5,4,3,3,5,6,5,4,4,3,2,3,4,2,4,2,0,0,0,1,4,4,2,1,0,0,0,0,0,0,0,3,3,2,4,1,3,3,2,4,1,0,0,1,3,3,2,3,3,0,1,3,3,2,3,8,9,8,5,4,4,3,4,7,7,7,8,6,6,6,9,7,9,9,11,10,12,10,13,15,14,10,9,9,12,13,10,5,5,7,6,5,3,3,4,2,1,3,3,3,4,6,6,6,6,6,7,6,5,4,3,2,4,1,3,3,3,3,1,2,4,4,4,4,4,1,2,4,5,4,4,2,0,3,4,4,1,0,1,4,2,2,3,1,1,3,3,2,3,3,3,4,3,5,6,5,4,8,9,8,8,9,9,13,14,13,9,8,4,4,3,4,2,2,4,6,9,10,11,18,15,7,7,5,6,7,7,9,9,9,8,4,5,5,3,3,3,3,1,0,1,3,4,4,4,4,4,1,2,3,2,4,2,1,2,3,3,3,3,4,2,4,4,4,3,3,1,1,4,4,3,0,0,0,0,1,4,2,6,6,4,3,4,2,3,3,3,2,3,4,7,9,10,9,7,4,2,3,5,7,9,8,8,6,4,3,2,7,10,10,10,7,7,8,6,6,3,2,5,7,7,5,4,2,3,2,4,6,6,5,6,6,6,8,9,9,13,14,14,14,9,5,6,5,3,6,6,6,10,8,4,6,8,9,14,13,12,14,16,21,24,20,18,14,11,9,9,9,-1,-1,-1,-1,-1,-1,-1,-1,-1,-1,-1,-1,-1,-1,-1,-1,-1,-1,-1,-1,-1,-1,-1,-1,-1,-1,-1,-1,-1,-1,-1,-1,-1,-1,-1,-1,-1,-1,-1,-1,-1,-1,-1,-1,-1,-1,-1,-1,-1,-1,-1,-1,-1
-1,-1,-1,-1,-1,-1,-1,-1,-1,-1,-1,-1,-1,-1,-1,-1,-1,-1,-1,-1,-1,-1,-1,-1,-1,-1,-1,-1,-1,-1,-1,-1,-1,-1,-1,-1,6,7,7,8,5,6,9,16,17,16,10,7,4,3,2,3,3,1,0,1,2,3,3,3,3,2,2,3,3,4,2,2,2,1,1,2,2,4,7,8,5,9,12,13,11,6,4,2,9,15,19,19,18,17,15,16,19,20,19,19,15,14,13,14,14,15,15,18,19,20,19,16,17,16,18,17,15,18,14,16,17,18,18,19,20,18,19,20,19,19,18,18,17,16,14,15,16,15,14,14,14,14,14,13,11,11,10,11,12,12,13,10,5,8,11,11,9,9,10,10,13,11,6,6,5,6,4,7,9,10,6,8,7,10,10,9,6,4,1,1,2,4,1,0,1,2,3,4,3,2,1,1,1,0,0,0,0,1,3,3,1,0,0,0,0,0,0,1,4,2,3,3,2,4,1,3,3,0,0,0,2,4,3,3,3,3,0,1,3,3,4,3,5,5,7,5,3,4,4,4,4,5,6,6,4,5,4,5,5,6,7,10,9,14,12,11,13,12,10,9,10,13,12,9,6,6,7,7,6,4,1,4,2,0,1,3,3,4,6,6,6,6,7,7,7,5,5,4,5,5,1,2,4,1,3,3,1,4,4,4,3,3,4,4,4,5,5,4,3,1,4,2,3,4,3,4,3,1,2,4,1,0,1,3,3,1,0,0,1,4,4,4,4,4,8,9,8,9,11,11,13,14,13,9,7,6,5,2,2,4,2,3,5,8,11,11,13,14,6,5,4,10,10,11,12,13,15,9,6,4,4,2,4,1,4,2,1,2,2,2,2,3,4,3,1,3,3,2,3,2,0,0,0,0,0,0,2,4,2,5,6,6,3,1,0,3,4,3,1,1,1,0,2,4,1,5,5,4,5,4,2,0,0,0,2,4,7,9,10,10,11,8,5,3,3,6,9,11,9,10,9,7,3,3,5,6,7,6,4,4,3,2,3,4,3,4,6,6,4,3,3,3,4,3,6,6,7,7,6,6,9,11,12,17,16,14,14,9,6,6,4,4,7,9,11,11,4,4,6,7,9,13,11,10,15,19,24,26,20,18,14,10,9,7,9,-1,-1,-1,-1,-1,-1,-1,-1,-1,-1,-1,-1,-1,-1,-1,-1,-1,-1,-1,-1,-1,-1,-1,-1,-1,-1,-1,-1,-1,-1,-1,-1,-1,-1,-1,-1,-1,-1,-1,-1,-1,-1,-1,-1,-1,-1,-1,-1,-1,-1,-1,-1,-1
-1,-1,-1,-1,-1,-1,-1,-1,-1,-1,-1,-1,-1,-1,-1,-1,-1,-1,-1,-1,-1,-1,-1,-1,-1,-1,-1,-1,-1,-1,-1,-1,-1,-1,-1,-1,8,6,6,8,7,8,11,20,19,14,9,4,4,3,3,3,1,0,0,2,4,3,3,3,3,4,4,3,4,3,4,3,2,3,2,2,3,3,4,8,10,14,14,11,7,4,2,6,18,20,20,18,15,17,16,16,19,19,17,15,14,15,16,16,15,16,18,21,21,21,19,16,15,15,15,13,11,12,11,13,13,14,18,19,19,17,16,17,19,18,16,16,18,16,15,16,15,14,15,14,14,14,14,13,11,12,12,12,9,12,12,14,11,11,9,9,11,12,13,11,11,10,6,6,8,9,6,8,9,8,7,7,8,9,9,8,5,2,3,3,4,3,1,1,1,2,2,1,1,1,2,3,3,2,1,0,0,0,1,4,2,0,0,0,0,1,2,5,4,2,4,2,4,2,0,2,4,1,0,0,3,3,2,4,3,3,1,2,4,3,4,1,1,2,6,4,3,1,2,2,2,4,1,1,4,2,3,4,4,4,4,6,6,12,12,13,11,9,10,9,10,14,14,12,9,6,7,6,6,5,3,4,1,0,0,1,3,3,5,5,6,6,6,7,7,7,7,6,7,5,3,1,3,3,1,4,2,3,4,5,5,1,2,2,2,2,6,7,5,2,3,2,2,2,3,2,2,3,3,3,2,1,0,1,3,4,2,1,0,3,4,5,6,6,8,9,9,9,11,11,11,14,13,11,7,7,5,1,1,2,4,3,5,7,7,9,9,8,4,5,7,10,14,14,17,19,18,11,7,5,3,3,3,3,3,3,3,4,4,2,0,3,4,4,4,3,1,1,3,4,3,3,3,2,1,0,1,4,2,5,5,4,2,1,2,4,4,3,2,4,2,0,3,3,0,3,3,5,5,3,4,1,0,0,3,4,7,11,11,9,7,8,3,4,1,6,9,10,6,8,10,8,4,3,1,0,1,3,3,3,3,3,3,2,3,4,4,4,4,3,3,4,2,0,3,4,7,8,5,7,9,11,15,17,17,17,13,8,4,6,4,3,7,9,13,12,8,7,7,7,8,10,10,9,14,21,27,27,22,20,13,8,8,6,9,10,-1,-1,-1,-1,-1,-1,-1,-1,-1,-1,-1,-1,-1,-1,-1,-1,-1,-1,-1,-1,-1,-1,-1,-1,-1,-1,-1,-1,-1,-1,-1,-1,-1,-1,-1,-1,-1,-1,-1,-1,-1,-1,-1,-1,-1,-1,-1,-1,-1,-1,-1,-1
-1,-1,-1,-1,-1,-1,-1,-1,-1,-1,-1,-1,-1,-1,-1,-1,-1,-1,-1,-1,-1,-1,-1,-1,-1,-1,-1,-1,-1,-1,-1,-1,-1,-1,-1,-1,-1,6,6,10,11,12,15,21,23,13,6,1,3,3,2,1,0,0,0,3,3,0,0,0,0,1,2,3,2,2,2,3,3,3,4,3,3,1,5,8,13,18,16,8,6,3,2,9,21,24,19,15,18,19,17,17,18,19,17,17,19,17,16,16,16,18,21,21,22,19,18,16,15,14,12,11,12,12,11,10,15,17,17,19,17,18,18,20,18,17,17,14,16,19,18,16,16,14,14,13,12,10,12,14,14,13,13,12,12,10,12,14,15,12,12,10,9,12,14,12,11,12,8,6,9,9,8,8,9,10,8,7,8,7,9,2,4,5,3,3,4,4,2,2,4,4,4,4,3,4,4,3,3,4,3,1,0,0,1,4,2,0,0,0,0,2,4,4,5,3,3,2,4,1,0,1,3,3,1,0,2,4,2,3,4,3,3,3,3,4,3,4,3,3,4,2,3,4,3,3,4,2,0,0,3,3,1,2,3,3,4,4,6,9,12,13,14,10,8,10,11,12,13,9,8,5,7,7,6,4,4,3,1,2,3,3,2,3,5,5,5,5,4,5,6,6,7,8,7,6,3,3,1,4,2,2,4,3,5,5,4,3,1,2,4,4,6,8,6,2,3,4,4,4,3,4,4,3,2,2,3,3,1,0,1,2,4,2,0,2,4,6,7,7,8,10,10,11,12,12,11,11,14,10,8,6,2,0,0,0,1,3,4,6,6,6,7,5,2,3,7,10,8,9,15,20,18,15,8,6,5,4,4,5,6,4,3,1,2,4,1,3,3,2,2,1,0,0,1,2,3,3,3,3,1,0,0,3,3,3,3,4,2,2,4,2,4,2,4,2,4,2,4,2,1,4,2,4,4,3,3,3,1,1,4,3,6,11,13,12,10,6,3,4,1,5,8,8,8,9,11,11,5,1,1,2,4,3,1,4,2,3,4,3,3,3,4,3,4,3,3,3,1,1,4,4,7,8,5,9,13,13,15,17,16,16,14,8,7,6,2,4,4,5,5,11,6,8,11,9,9,12,11,9,14,21,26,26,21,19,11,9,7,7,10,11,-1,-1,-1,-1,-1,-1,-1,-1,-1,-1,-1,-1,-1,-1,-1,-1,-1,-1,-1,-1,-1,-1,-1,-1,-1,-1,-1,-1,-1,-1,-1,-1,-1,-1,-1,-1,-1,-1,-1,-1,-1,-1,-1,-1,-1,-1,-1,-1,-1,-1,-1,-1
-1,-1,-1,-1,-1,-1,-1,-1,-1,-1,-1,-1,-1,-1,-1,-1,-1,-1,-1,-1,-1,-1,-1,-1,-1,-1,-1,-1,-1,-1,-1,-1,-1,-1,-1,-1,-1,10,12,16,16,14,16,19,18,8,2,1,1,4,2,0,0,1,2,4,2,0,0,0,0,1,1,2,2,2,1,0,0,0,1,1,1,3,5,6,13,16,16,10,6,2,7,18,26,23,19,15,17,20,18,16,18,19,20,21,21,18,19,19,21,23,24,22,18,17,16,16,13,14,12,11,12,9,13,15,16,19,17,16,18,16,16,17,20,20,20,17,16,17,17,15,15,17,14,13,13,11,10,12,13,13,13,13,13,10,10,13,13,10,13,13,10,10,13,13,12,13,12,9,10,10,10,9,12,10,8,8,8,8,6,1,4,1,1,2,5,5,2,3,2,1,1,2,3,2,1,0,0,1,4,2,0,1,3,3,1,0,0,0,1,5,5,4,3,3,1,3,3,0,0,0,1,4,2,0,1,3,3,3,4,1,3,4,2,4,2,2,4,5,3,1,3,3,3,3,2,1,2,3,4,2,0,0,0,0,1,5,7,8,10,13,12,11,10,10,11,12,10,9,6,5,6,8,7,4,4,3,3,4,3,3,4,3,6,7,3,6,4,5,5,5,6,7,7,7,4,4,2,3,3,1,2,5,4,5,5,3,4,4,2,3,4,8,7,1,2,2,3,4,4,4,3,2,1,3,3,2,2,2,1,0,2,4,1,1,2,7,7,8,9,10,13,12,10,10,9,11,13,10,9,7,1,0,0,0,0,1,4,5,5,5,6,5,1,3,7,8,7,7,10,17,17,15,10,9,7,6,5,7,8,5,1,0,1,4,2,3,3,0,1,2,3,2,1,0,0,0,1,3,2,0,1,4,2,4,2,4,2,3,3,2,4,4,4,3,3,3,3,1,3,3,3,3,2,2,1,3,3,2,3,2,6,11,12,13,11,6,3,3,4,3,7,9,8,8,9,7,4,1,2,4,2,1,1,3,2,3,4,3,1,3,3,2,3,0,3,3,3,4,3,5,8,7,7,9,13,16,17,18,17,15,11,6,6,6,2,2,6,7,8,8,4,7,9,10,11,14,10,9,11,19,23,23,21,17,11,7,6,7,8,10,-1,-1,-1,-1,-1,-1,-1,-1,-1,-1,-1,-1,-1,-1,-1,-1,-1,-1,-1,-1,-1,-1,-1,-1,-1,-1,-1,-1,-1,-1,-1,-1,-1,-1,-1,-1,-1,-1,-1,-1,-1,-1,-1,-1,-1,-1,-1,-1,-1,-1,-1,-1
-1,-1,-1,-1,-1,-1,-1,-1,-1,-1,-1,-1,-1,-1,-1,-1,-1,-1,-1,-1,-1,-1,-1,-1,-1,-1,-1,-1,-1,-1,-1,-1,-1,-1,-1,-1,-1,12,15,16,16,14,14,15,13,6,3,3,1,3,3,0,1,3,4,2,1,0,0,0,1,3,3,3,4,4,4,2,1,1,2,3,4,3,6,7,10,14,11,7,4,5,13,20,25,23,17,15,18,16,16,18,19,21,24,24,22,19,21,22,23,24,22,22,19,17,16,14,14,13,12,10,8,12,14,16,16,17,16,16,16,19,19,21,21,21,20,18,18,18,17,16,16,18,17,16,14,12,12,9,11,13,13,14,14,12,10,10,12,9,12,14,15,10,11,11,12,13,12,11,10,10,10,11,13,11,8,10,9,7,4,1,1,1,1,1,4,5,4,3,0,0,0,0,0,0,0,0,0,1,4,2,0,2,4,1,0,0,0,1,3,4,6,6,3,3,1,2,4,1,0,0,1,4,2,2,2,1,2,3,3,2,2,2,1,2,3,4,4,7,7,6,3,4,2,0,1,3,4,3,2,1,0,0,0,0,0,3,6,9,12,12,10,9,9,12,14,11,10,10,9,6,6,7,9,6,4,4,5,1,2,3,2,4,5,4,5,4,5,4,6,4,4,6,7,6,6,5,5,2,4,3,2,1,5,6,4,4,4,3,1,3,4,7,8,3,5,5,4,4,3,3,3,4,3,1,2,3,3,4,4,2,1,4,2,0,0,5,7,8,11,10,11,12,10,9,9,10,12,12,10,7,0,0,0,0,0,0,1,2,2,5,5,2,0,3,6,5,5,5,7,13,14,11,9,10,6,4,4,8,8,4,2,1,0,3,3,3,3,2,4,4,4,5,4,1,0,0,1,3,3,1,3,3,2,4,2,4,1,2,4,3,4,5,6,4,2,1,1,3,3,3,3,3,2,2,1,1,4,2,4,2,1,7,7,10,7,6,4,3,2,5,5,7,8,6,5,2,3,4,4,2,0,0,1,4,2,3,3,4,3,3,2,2,4,2,3,4,3,2,3,5,6,4,8,13,14,17,18,19,17,11,8,6,7,7,5,2,6,11,10,10,7,4,8,14,16,17,12,10,14,20,21,22,21,14,12,8,5,7,11,14,-1,-1,-1,-1,-1,-1,-1,-1,-1,-1,-1,-1,-1,-1,-1,-1,-1,-1,-1,-1,-1,-1,-1,-1,-1,-1,-1,-1,-1,-1,-1,-1,-1,-1,-1,-1,-1,-1,-1,-1,-1,-1,-1,-1,-1,-1,-1,-1,-1,-1,-1,-1
-1,-1,-1,-1,-1,-1,-1,-1,-1,-1,-1,-1,-1,-1,-1,-1,-1,-1,-1,-1,-1,-1,-1,-1,-1,-1,-1,-1,-1,-1,-1,-1,-1,-1,-1,-1,12,13,14,14,15,10,11,12,11,6,3,4,2,2,4,3,4,3,1,2,2,2,2,3,4,3,2,1,1,2,2,4,4,4,4,3,3,4,6,7,10,11,9,6,9,11,17,23,24,22,14,16,17,18,20,20,20,22,24,24,19,17,22,23,22,22,20,17,17,15,16,14,13,13,14,14,15,17,19,19,19,17,17,18,18,19,20,20,20,19,19,19,17,18,19,16,15,16,16,18,14,13,12,11,9,11,13,11,12,12,12,13,13,11,11,14,14,16,17,15,14,12,13,11,12,10,10,14,14,10,11,11,13,10,5,1,1,1,2,4,2,6,6,5,1,0,0,0,1,1,1,1,1,1,3,2,0,3,3,0,1,2,3,4,3,3,4,4,3,4,1,1,4,2,0,0,2,3,3,4,4,4,4,3,1,0,0,1,3,2,3,2,4,2,7,8,3,4,2,1,3,3,1,0,0,0,0,0,0,0,0,3,4,8,10,10,7,7,7,8,9,11,10,10,9,6,6,9,10,9,5,7,6,2,4,3,4,3,4,3,4,4,4,3,4,5,5,5,6,6,6,6,6,5,4,4,5,4,3,4,3,2,3,4,3,2,5,6,7,4,6,6,4,4,4,3,2,1,4,2,2,4,2,1,2,4,3,3,3,2,2,3,6,8,11,13,11,12,12,10,9,9,10,13,12,8,3,3,3,2,1,1,2,3,4,4,5,1,0,3,4,3,3,2,4,8,10,8,8,7,8,7,4,7,8,3,4,4,3,4,2,2,3,4,3,4,4,5,4,4,1,0,0,1,4,3,4,1,4,2,3,3,0,1,4,4,4,4,4,4,2,0,2,4,3,3,2,4,2,1,1,1,4,2,4,2,1,4,2,1,2,4,2,4,2,1,2,3,5,5,2,1,1,2,2,1,0,0,0,3,3,3,3,3,3,4,2,3,3,3,4,4,4,5,5,9,6,8,12,18,17,18,20,20,19,12,6,3,6,6,5,4,8,8,5,12,9,5,10,14,17,15,12,13,16,18,20,22,20,14,12,8,8,8,10,14,-1,-1,-1,-1,-1,-1,-1,-1,-1,-1,-1,-1,-1,-1,-1,-1,-1,-1,-1,-1,-1,-1,-1,-1,-1,-1,-1,-1,-1,-1,-1,-1,-1,-1,-1,-1,-1,-1,-1,-1,-1,-1,-1,-1,-1,-1,-1,-1,-1,-1,-1,-1
-1,-1,-1,-1,-1,-1,-1,-1,-1,-1,-1,-1,-1,-1,-1,-1,-1,-1,-1,-1,-1,-1,-1,-1,-1,-1,-1,-1,-1,-1,-1,-1,-1,-1,-1,-1,18,18,15,12,11,8,6,11,10,5,2,3,3,2,2,2,3,1,2,4,4,3,4,3,2,2,3,3,4,3,3,1,2,3,2,3,4,2,6,7,11,12,9,6,14,15,19,22,22,19,16,16,15,18,19,20,20,22,22,19,18,21,21,22,20,19,19,16,17,15,14,14,16,15,14,16,19,20,19,22,20,21,21,20,18,16,18,17,16,18,20,20,20,17,16,18,15,15,14,16,17,14,12,11,9,8,13,13,10,13,12,12,13,10,9,11,14,14,16,16,14,13,13,14,14,12,12,12,15,13,16,17,13,7,6,4,2,4,6,3,6,4,4,4,3,1,0,1,1,2,2,2,1,2,3,1,0,3,3,0,2,4,3,2,1,2,4,4,2,3,0,1,4,2,0,0,3,2,4,1,1,2,2,1,0,0,1,3,3,3,3,2,4,3,4,5,4,4,3,5,4,2,1,0,0,0,0,0,0,0,0,3,4,8,9,9,8,5,8,8,8,11,11,8,10,8,6,9,10,9,6,8,6,4,2,0,3,3,3,4,3,5,4,4,5,4,4,5,4,6,6,6,6,6,4,4,6,6,5,6,6,3,3,2,3,3,5,5,5,4,5,5,4,4,3,3,4,2,3,4,4,2,1,2,3,2,4,4,4,4,4,1,5,6,12,14,13,10,12,12,10,10,10,11,11,6,3,3,3,4,2,1,3,3,2,4,2,0,0,3,4,3,3,3,6,8,7,8,9,8,7,8,6,5,4,4,2,2,3,2,1,1,2,3,4,2,1,2,5,6,5,3,3,3,4,4,3,2,4,1,4,2,0,1,5,5,3,4,3,2,1,0,3,4,4,1,3,3,2,3,3,4,3,3,3,1,3,3,1,0,0,3,3,3,3,0,0,0,1,2,4,3,1,0,0,1,1,1,1,4,2,4,2,4,2,2,4,2,5,5,2,1,4,7,6,9,10,8,10,16,17,17,22,21,14,8,2,4,3,5,6,6,7,8,6,9,9,4,7,16,18,15,13,13,19,20,21,21,19,14,10,9,10,10,12,14,-1,-1,-1,-1,-1,-1,-1,-1,-1,-1,-1,-1,-1,-1,-1,-1,-1,-1,-1,-1,-1,-1,-1,-1,-1,-1,-1,-1,-1,-1,-1,-1,-1,-1,-1,-1,-1,-1,-1,-1,-1,-1,-1,-1,-1,-1,-1,-1,-1,-1,-1,-1
-1,-1,-1,-1,-1,-1,-1,-1,-1,-1,-1,-1,-1,-1,-1,-1,-1,-1,-1,-1,-1,-1,-1,-1,-1,-1,-1,-1,-1,-1,-1,-1,-1,-1,-1,-1,-1,17,14,10,8,7,8,14,10,8,1,2,4,1,4,4,1,0,3,3,1,1,1,0,2,4,3,3,2,2,4,3,3,3,3,3,1,2,6,7,9,10,9,12,16,16,17,19,22,20,17,14,16,18,21,20,22,21,22,20,20,21,22,20,20,18,16,15,16,15,14,16,18,16,16,19,20,21,19,19,20,22,23,20,17,14,13,16,16,16,18,20,21,20,18,17,17,14,14,15,16,14,14,14,12,8,11,13,10,12,12,12,12,10,7,8,9,9,8,9,9,8,13,13,12,15,13,10,13,15,20,20,18,11,9,6,1,5,7,6,5,3,3,1,3,3,1,1,2,1,1,1,1,3,3,1,1,4,2,0,2,4,3,3,2,1,4,3,4,2,0,2,4,1,0,0,2,4,2,0,0,0,0,0,0,0,1,3,2,4,2,3,3,3,3,2,4,4,4,5,5,4,2,0,0,0,0,0,0,0,0,3,4,7,9,9,8,7,8,8,8,10,8,8,10,9,6,9,10,10,9,8,6,4,1,1,4,2,1,2,4,3,5,4,4,5,5,4,4,5,6,6,6,5,3,3,5,6,6,6,5,3,3,4,2,4,3,4,2,3,3,2,1,2,4,2,4,2,4,3,4,1,3,4,3,4,4,4,4,3,4,3,5,8,13,14,13,9,10,10,13,11,10,12,7,4,3,1,0,2,4,3,3,1,2,4,1,0,0,3,4,4,4,5,10,8,7,8,9,8,4,5,8,9,5,2,4,3,3,3,3,3,4,3,2,3,4,4,5,6,6,4,4,4,4,4,2,3,3,2,4,1,2,4,4,5,3,2,4,1,0,1,3,6,5,0,3,4,4,3,3,2,3,3,1,3,3,1,1,2,3,4,2,3,3,0,0,0,0,0,1,3,3,1,1,3,3,4,4,3,3,3,2,4,1,1,3,4,5,6,4,2,5,8,6,9,11,10,12,19,18,19,21,21,11,4,4,2,1,4,6,8,8,6,3,7,9,8,9,16,15,12,14,15,22,21,20,18,17,17,9,10,13,11,12,13,11,-1,-1,-1,-1,-1,-1,-1,-1,-1,-1,-1,-1,-1,-1,-1,-1,-1,-1,-1,-1,-1,-1,-1,-1,-1,-1,-1,-1,-1,-1,-1,-1,-1,-1,-1,-1,-1,-1,-1,-1,-1,-1,-1,-1,-1,-1,-1,-1,-1,-1,-1
-1,-1,-1,-1,-1,-1,-1,-1,-1,-1,-1,-1,-1,-1,-1,-1,-1,-1,-1,-1,-1,-1,-1,-1,-1,-1,-1,-1,-1,-1,-1,-1,-1,-1,-1,-1,-1,13,9,8,7,7,10,13,10,4,2,1,4,2,2,2,2,2,3,3,0,0,0,1,2,3,2,1,0,0,2,3,3,2,1,2,2,4,7,7,7,9,14,17,18,15,15,20,22,21,16,13,16,19,22,23,20,21,20,20,19,19,21,20,17,16,16,16,16,15,17,18,17,16,20,23,23,21,19,19,22,19,17,18,16,14,15,16,16,12,11,17,17,18,18,15,14,13,13,14,17,18,17,14,15,16,13,15,10,9,11,14,16,14,9,12,11,11,11,9,8,8,11,14,15,14,12,9,11,13,12,16,15,14,12,13,8,3,7,3,2,1,1,0,1,3,4,3,4,3,3,3,4,3,1,1,3,3,1,1,1,2,3,2,3,4,3,5,2,1,0,2,4,3,3,3,3,3,2,2,2,1,0,0,0,0,1,3,3,3,1,3,3,3,3,2,4,4,4,4,2,2,4,1,1,2,3,3,2,1,0,2,5,6,9,8,8,9,7,8,8,9,7,5,9,7,6,9,11,12,12,9,6,3,0,2,4,1,0,0,2,3,4,3,5,4,4,6,4,6,6,6,6,6,5,3,3,5,7,6,5,2,1,4,2,4,2,3,4,4,4,4,2,1,4,3,4,3,3,1,4,3,3,2,1,4,3,5,6,6,4,2,3,8,11,14,14,11,11,10,11,13,10,9,7,4,3,3,1,1,2,3,2,2,3,5,1,1,1,2,5,6,5,8,11,12,5,5,7,8,5,5,9,7,5,2,2,3,4,4,4,4,4,5,5,4,2,1,1,5,4,4,4,4,3,2,1,3,3,3,3,3,4,3,4,4,4,4,2,1,1,3,5,8,8,1,3,4,3,1,1,2,4,1,3,3,1,1,3,4,3,2,1,3,3,0,0,1,2,2,1,1,4,2,2,4,2,2,2,3,3,2,4,2,0,0,1,3,5,7,5,4,7,8,5,9,10,10,11,19,20,20,18,13,6,4,3,4,3,2,5,10,8,7,4,5,8,11,13,19,15,14,15,14,20,22,20,19,16,16,8,13,14,13,11,12,12,-1,-1,-1,-1,-1,-1,-1,-1,-1,-1,-1,-1,-1,-1,-1,-1,-1,-1,-1,-1,-1,-1,-1,-1,-1,-1,-1,-1,-1,-1,-1,-1,-1,-1,-1,-1,-1,-1,-1,-1,-1,-1,-1,-1,-1,-1,-1,-1,-1,-1,-1
-1,-1,-1,-1,-1,-1,-1,-1,-1,-1,-1,-1,-1,-1,-1,-1,-1,-1,-1,-1,-1,-1,-1,-1,-1,-1,-1,-1,-1,-1,-1,-1,-1,-1,-1,-1,-1,8,9,12,12,12,12,13,8,6,4,3,3,3,0,2,4,4,3,2,0,0,0,2,3,2,4,1,0,0,1,1,1,1,3,3,5,9,7,7,6,13,22,21,19,12,13,20,22,21,17,13,16,20,21,21,21,20,20,19,19,20,20,18,15,15,15,16,17,17,18,17,16,19,23,25,25,21,19,17,15,14,14,16,14,13,15,15,14,13,13,8,10,12,13,17,15,12,13,13,18,22,24,18,15,16,18,15,12,11,11,14,15,18,15,17,19,16,14,11,5,8,12,15,14,14,15,10,10,16,14,11,10,11,16,15,11,5,4,3,3,2,3,3,2,1,2,3,3,3,3,3,2,1,2,4,3,2,5,4,5,3,5,4,5,1,6,4,4,3,2,1,2,3,3,3,3,4,3,4,4,3,1,0,0,1,1,1,1,1,1,4,2,2,4,4,3,4,3,4,5,4,4,2,1,4,2,2,4,1,0,1,5,7,8,10,9,10,9,7,10,10,7,5,6,7,7,6,12,11,10,8,7,6,3,6,3,3,2,1,2,4,3,3,3,3,5,3,3,5,6,6,7,6,3,3,3,6,8,7,4,3,3,3,2,3,3,3,3,2,1,4,2,2,4,5,4,3,1,0,2,4,3,4,4,3,1,5,5,4,5,4,4,8,10,13,12,10,10,12,13,11,12,11,9,4,2,4,2,0,0,1,3,4,5,4,4,2,2,2,5,9,13,13,10,7,4,4,6,5,4,5,6,7,7,6,3,5,5,7,7,6,4,5,5,4,4,3,2,2,3,4,3,4,4,2,1,3,3,3,4,4,3,3,2,4,4,3,3,1,2,4,3,7,8,6,3,4,2,4,2,3,3,3,3,1,1,3,3,1,0,0,1,4,2,0,1,4,5,5,4,1,3,3,3,3,0,0,2,4,2,4,2,1,0,0,1,4,4,7,5,4,7,8,6,8,10,10,14,22,21,20,17,8,3,4,3,2,3,4,2,7,10,7,7,6,10,13,17,22,19,15,15,16,19,20,20,16,16,11,9,13,14,14,13,10,10,-1,-1,-1,-1,-1,-1,-1,-1,-1,-1,-1,-1,-1,-1,-1,-1,-1,-1,-1,-1,-1,-1,-1,-1,-1,-1,-1,-1,-1,-1,-1,-1,-1,-1,-1,-1,-1,-1,-1,-1,-1,-1,-1,-1,-1,-1,-1,-1,-1,-1,-1
-1,-1,-1,-1,-1,-1,-1,-1,-1,-1,-1,-1,-1,-1,-1,-1,-1,-1,-1,-1,-1,-1,-1,-1,-1,-1,-1,-1,-1,-1,-1,-1,-1,-1,-1,-1,-1,6,9,11,12,12,10,7,3,4,2,4,3,4,1,2,4,2,1,1,0,1,2,4,3,2,2,1,0,0,0,0,1,3,3,3,5,7,9,6,5,18,24,22,14,12,14,19,23,22,18,14,15,20,22,23,22,20,18,20,20,19,18,17,14,16,15,17,19,15,16,15,18,21,24,23,23,21,16,13,10,11,10,12,13,14,15,17,17,15,13,11,13,13,13,17,16,13,13,9,12,23,20,16,14,14,17,15,13,12,9,11,12,16,17,18,20,18,16,16,8,7,7,11,12,15,17,16,9,15,17,13,8,6,11,10,9,7,4,3,2,3,3,3,4,2,0,0,0,0,0,0,1,3,4,2,2,4,3,6,4,3,5,7,5,4,3,2,2,3,4,3,1,0,0,0,0,1,1,1,1,3,4,3,3,4,3,3,1,1,4,4,2,1,2,2,4,2,2,4,6,4,4,6,3,3,3,3,2,1,0,0,2,6,8,7,9,10,9,10,11,7,6,5,8,8,6,8,12,13,11,10,8,8,8,8,6,4,4,4,4,2,2,4,2,4,2,4,3,2,5,6,7,7,6,2,1,4,7,8,6,4,4,1,1,3,4,4,5,4,2,4,1,2,5,6,6,2,0,0,1,3,4,4,4,2,2,4,2,1,1,3,4,8,9,10,9,10,11,14,13,11,10,11,7,4,3,3,3,1,2,4,3,2,2,5,4,4,4,3,5,10,10,11,10,4,3,4,2,4,5,6,7,7,7,6,4,6,7,8,8,6,4,4,3,2,2,3,4,2,1,1,0,1,2,4,4,4,2,3,6,5,3,3,2,4,4,3,4,2,3,4,3,5,9,5,5,6,4,2,3,5,4,3,1,0,2,4,1,1,1,0,2,4,1,1,4,6,6,6,5,2,2,4,3,3,0,0,3,3,3,3,0,1,2,3,3,6,6,7,5,4,6,8,8,12,12,12,17,20,21,17,13,5,5,5,5,3,2,4,2,8,8,9,10,12,12,15,21,22,20,12,13,17,17,18,19,18,14,12,9,14,15,15,11,11,11,9,-1,-1,-1,-1,-1,-1,-1,-1,-1,-1,-1,-1,-1,-1,-1,-1,-1,-1,-1,-1,-1,-1,-1,-1,-1,-1,-1,-1,-1,-1,-1,-1,-1,-1,-1,-1,-1,-1,-1,-1,-1,-1,-1,-1,-1,-1,-1,-1,-1,-1
-1,-1,-1,-1,-1,-1,-1,-1,-1,-1,-1,-1,-1,-1,-1,-1,-1,-1,-1,-1,-1,-1,-1,-1,-1,-1,-1,-1,-1,-1,-1,-1,-1,-1,-1,-1,-1,9,5,6,9,9,6,1,0,3,3,4,2,4,2,1,2,4,2,0,0,2,4,1,2,0,0,0,0,0,0,0,1,3,5,5,9,8,6,6,7,22,27,21,12,13,14,19,21,20,15,15,16,21,25,25,23,20,16,18,18,17,16,15,14,14,15,19,19,14,17,17,21,22,24,19,11,9,7,8,9,11,10,10,12,11,14,14,16,16,15,12,13,10,12,16,16,13,13,11,5,13,14,14,11,10,15,15,12,12,11,6,6,11,12,12,16,16,19,18,11,9,9,12,12,14,21,19,15,10,14,14,13,9,8,8,7,8,9,5,4,2,1,1,2,5,4,5,3,3,3,3,4,3,1,0,2,4,2,4,3,1,5,5,5,2,1,1,0,0,1,3,3,1,0,0,0,0,1,2,1,1,2,3,3,2,1,3,4,3,6,6,4,1,0,1,3,3,2,4,4,2,4,6,6,4,6,5,3,3,3,2,2,6,7,7,7,8,8,10,11,10,6,6,8,10,8,8,10,9,10,9,6,7,8,7,4,4,2,2,2,1,1,4,2,3,4,3,3,4,4,6,7,8,8,4,3,3,4,7,7,6,5,1,4,5,7,7,6,5,4,3,1,2,5,7,5,3,1,0,0,1,2,3,3,4,1,3,2,0,0,3,4,8,9,9,8,9,12,13,14,11,12,11,9,6,3,3,3,3,4,2,3,4,4,3,4,2,5,5,4,5,7,8,7,2,3,3,1,3,4,6,7,8,9,9,6,6,6,5,6,3,3,3,3,4,2,0,3,3,0,0,0,0,0,1,3,2,1,5,7,6,2,2,4,4,4,3,3,3,3,4,4,6,5,4,6,6,1,5,4,4,5,1,0,0,3,3,2,3,3,1,3,3,0,2,5,6,4,4,6,4,2,3,4,6,2,1,2,4,2,4,1,2,4,3,4,6,6,5,4,5,6,11,12,12,13,15,18,20,16,10,5,7,6,6,5,3,4,3,4,5,5,9,17,17,16,17,16,18,16,8,16,18,17,20,20,17,13,10,10,13,14,14,14,10,11,9,-1,-1,-1,-1,-1,-1,-1,-1,-1,-1,-1,-1,-1,-1,-1,-1,-1,-1,-1,-1,-1,-1,-1,-1,-1,-1,-1,-1,-1,-1,-1,-1,-1,-1,-1,-1,-1,-1,-1,-1,-1,-1,-1,-1,-1,-1,-1,-1,-1,-1
-1,-1,-1,-1,-1,-1,-1,-1,-1,-1,-1,-1,-1,-1,-1,-1,-1,-1,-1,-1,-1,-1,-1,-1,-1,-1,-1,-1,-1,-1,-1,-1,-1,-1,-1,-1,-1,8,5,7,5,3,2,1,0,3,4,4,1,2,2,1,1,4,2,0,0,2,3,2,1,0,0,0,0,0,0,0,1,2,3,7,7,8,4,2,12,25,26,17,12,14,14,15,19,20,17,18,18,22,26,27,19,14,15,16,17,18,16,13,14,15,18,17,18,16,20,19,21,22,20,12,4,3,4,4,6,9,9,9,9,9,12,14,15,16,14,11,14,12,9,10,12,15,15,13,6,8,11,13,13,11,11,12,15,15,11,5,4,7,10,8,14,14,17,16,12,9,11,11,13,12,21,20,17,10,12,17,15,10,10,12,7,7,8,6,4,2,2,1,1,5,8,5,3,3,3,3,2,1,0,0,1,3,4,3,2,3,4,4,4,2,0,0,0,0,0,1,3,3,1,0,1,1,1,1,1,0,0,0,0,1,2,1,2,5,5,7,6,2,1,1,3,4,3,2,2,1,2,6,4,6,7,6,4,4,4,5,5,4,7,7,7,7,9,10,10,9,7,7,9,10,10,10,11,10,9,9,6,4,4,4,2,3,3,0,0,0,0,2,4,3,3,4,3,1,4,6,6,9,9,8,6,4,5,6,6,6,8,7,7,7,8,8,8,8,9,6,4,4,7,7,7,4,5,2,1,0,0,0,0,3,3,3,3,1,0,3,4,7,9,9,7,8,11,13,14,13,11,11,8,7,5,3,4,4,2,4,3,1,3,3,3,4,2,6,7,6,5,6,4,1,1,6,7,6,5,7,7,9,9,8,6,5,4,1,3,3,0,0,0,2,4,1,3,3,1,2,2,1,1,3,3,4,4,5,6,5,3,2,1,2,5,6,4,2,3,4,2,4,6,3,6,4,3,5,5,4,2,0,0,1,4,2,4,3,3,4,4,2,1,4,3,4,4,6,6,6,4,2,4,5,5,4,1,4,2,4,2,3,3,2,4,5,6,4,5,6,8,14,14,13,16,16,18,18,11,6,5,7,6,6,5,2,3,3,4,2,4,13,24,23,19,13,11,9,7,9,16,18,15,18,20,16,13,10,13,15,14,14,12,9,9,7,-1,-1,-1,-1,-1,-1,-1,-1,-1,-1,-1,-1,-1,-1,-1,-1,-1,-1,-1,-1,-1,-1,-1,-1,-1,-1,-1,-1,-1,-1,-1,-1,-1,-1,-1,-1,-1,-1,-1,-1,-1,-1,-1,-1,-1,-1,-1,-1,-1,-1
