-1,-1,-1,-1,-1,-1,-1,-1,-1,-1,-1,-1,-1,-1,-1,-1,-1,-1,-1,-1,-1,-1,-1,-1,-1,-1,-1,-1,-1,-1,-1,-1,-1,-1,-1,-1,-1,-1,-1,5,6,6,6,5,4,4,4,4,5,3,4,3,5,3,3,6,3,4,2,0,0,0,0,0,0,0,0,0,0,2,4,1,0,0,0,0,0,0,0,0,0,0,0,0,0,0,1,2,3,4,3,3,4,1,0,2,4,4,3,1,0,1,2,3,2,2,2,2,3,3,3,4,2,0,0,0,0,3,3,0,0,0,0,0,0,1,2,4,2,0,0,0,0,0,0,2,4,2,1,0,2,4,1,0,0,0,0,0,0,0,0,0,1,2,4,2,0,1,3,7,7,4,2,4,3,3,3,4,8,6,5,2,1,0,0,0,0,0,0,0,0,1,6,6,2,2,3,3,2,3,4,3,2,4,1,0,0,0,1,6,7,2,2,4,3,5,1,2,4,3,4,2,4,2,4,4,4,3,4,4,3,1,2,3,3,3,2,4,2,3,3,6,7,3,3,2,4,3,5,1,2,4,2,5,6,7,6,4,1,1,4,4,5,2,1,2,3,3,4,2,0,0,1,3,2,0,0,0,0,0,1,1,1,0,0,0,0,0,0,3,3,0,0,2,4,3,3,4,2,3,4,5,5,4,4,9,11,5,7,5,3,3,4,5,3,3,3,3,2,1,0,1,1,1,0,0,3,3,0,1,3,4,3,4,5,4,5,3,4,3,6,6,5,4,3,0,3,3,3,3,1,2,2,3,4,4,4,4,4,4,6,4,5,2,1,3,4,2,0,0,0,0,0,0,0,0,0,0,0,0,0,3,3,0,0,0,2,4,1,0,1,4,3,4,5,0,2,4,5,5,3,5,7,3,1,2,4,3,5,5,6,5,4,2,4,6,6,13,8,5,16,11,22,-1,-1,-1,-1,-1,-1,-1,-1,-1,-1,-1,-1,-1,-1,-1,-1,-1,-1,-1,-1,-1,-1,-1,-1,-1,-1,-1,-1,-1,-1
-1,-1,-1,-1,-1,-1,-1,-1,-1,-1,-1,-1,-1,-1,-1,-1,-1,-1,-1,-1,-1,-1,-1,-1,-1,-1,-1,-1,-1,-1,-1,-1,-1,-1,-1,-1,-1,-1,-1,10,5,4,5,5,3,6,6,5,2,5,6,4,4,6,3,4,5,2,1,0,0,0,0,0,0,0,0,0,0,2,4,1,0,0,0,0,0,0,0,0,0,0,0,0,0,0,1,1,1,2,3,5,5,3,3,4,2,1,4,2,0,1,4,2,2,2,2,4,1,0,0,2,4,1,0,0,1,4,2,0,0,0,0,0,0,1,4,2,2,0,0,0,0,0,0,1,3,3,1,0,2,3,1,0,0,0,0,0,0,0,0,1,3,4,2,1,0,1,2,4,4,4,2,2,3,3,3,6,7,8,5,4,4,3,3,2,1,0,1,2,3,3,6,6,3,3,3,3,4,3,1,2,4,2,1,0,0,0,0,5,3,3,1,2,6,4,3,3,3,1,4,3,4,2,4,4,4,4,4,3,3,2,4,3,3,3,4,4,3,1,4,6,4,4,3,1,2,6,4,3,1,3,4,6,8,8,8,6,3,4,5,7,2,1,3,4,3,3,2,1,0,0,1,4,2,0,0,1,2,3,4,3,2,0,0,0,0,0,0,3,3,0,0,1,2,3,3,2,1,3,4,4,4,5,6,8,7,3,3,0,0,0,1,3,6,3,3,3,4,2,0,1,2,1,0,0,3,3,0,0,1,2,3,6,3,6,3,4,4,4,5,5,2,5,5,1,2,4,3,3,0,0,0,1,1,3,4,4,3,5,4,6,3,4,1,2,2,1,0,0,0,0,0,0,0,0,0,0,0,0,1,4,2,0,1,1,2,3,1,0,2,4,1,6,7,3,2,4,3,5,5,5,3,4,2,1,2,3,2,1,5,8,8,1,4,4,4,8,11,10,25,20,10,-1,-1,-1,-1,-1,-1,-1,-1,-1,-1,-1,-1,-1,-1,-1,-1,-1,-1,-1,-1,-1,-1,-1,-1,-1,-1,-1,-1,-1,-1
-1,-1,-1,-1,-1,-1,-1,-1,-1,-1,-1,-1,-1,-1,-1,-1,-1,-1,-1,-1,-1,-1,-1,-1,-1,-1,-1,-1,-1,-1,-1,-1,-1,-1,-1,-1,-1,-1,-1,11,9,4,5,3,6,9,8,5,4,4,6,5,5,3,4,3,2,3,3,2,1,0,0,0,0,0,0,0,0,1,4,2,0,0,0,0,0,0,0,0,0,0,0,0,0,0,0,0,0,0,0,1,2,3,3,2,1,0,2,4,3,3,4,4,4,4,4,4,2,1,0,1,3,4,3,3,4,3,1,1,1,0,0,0,0,1,2,4,3,1,0,0,0,0,0,1,3,3,1,1,3,3,1,0,0,1,2,3,2,1,0,2,4,1,0,1,2,3,3,4,2,2,4,3,3,3,4,4,4,5,4,5,4,4,4,5,5,3,4,4,3,3,3,3,4,4,4,4,4,3,3,3,6,3,3,3,3,3,3,6,4,3,1,0,3,3,4,4,3,2,4,3,3,5,4,3,3,4,3,3,3,3,3,0,0,0,3,4,3,0,3,4,5,6,5,1,0,3,3,3,3,1,2,3,6,4,5,9,8,5,5,3,4,4,3,1,0,0,0,0,0,0,0,3,3,0,1,3,4,3,2,3,3,0,0,0,0,0,0,3,3,0,0,0,0,0,0,1,2,6,6,6,6,6,4,5,5,3,3,0,0,0,0,3,3,0,0,0,3,3,0,1,2,2,3,3,4,2,0,0,0,0,0,3,3,3,3,3,4,4,4,3,1,5,5,2,1,4,3,4,1,0,0,1,1,2,4,2,3,3,4,4,6,2,1,0,0,0,0,0,0,0,0,0,0,0,0,1,2,3,4,3,1,2,4,3,3,3,1,0,2,4,1,5,4,3,4,4,5,5,4,5,5,3,3,0,0,0,1,3,6,9,9,4,4,5,5,14,7,7,19,16,10,-1,-1,-1,-1,-1,-1,-1,-1,-1,-1,-1,-1,-1,-1,-1,-1,-1,-1,-1,-1,-1,-1,-1,-1,-1,-1,-1,-1,-1,-1
-1,-1,-1,-1,-1,-1,-1,-1,-1,-1,-1,-1,-1,-1,-1,-1,-1,-1,-1,-1,-1,-1,-1,-1,-1,-1,-1,-1,-1,-1,-1,-1,-1,-1,-1,-1,-1,-1,-1,6,9,3,5,6,5,8,9,7,3,5,6,5,4,5,2,2,4,3,3,4,3,1,0,0,0,0,0,0,0,0,3,3,0,0,0,0,0,0,0,0,0,0,0,0,0,0,0,0,0,0,0,0,0,0,0,0,0,0,1,2,3,4,4,4,4,4,4,3,4,4,2,2,2,4,4,4,4,3,4,3,2,0,0,1,2,3,3,2,3,4,2,1,0,0,0,2,4,1,0,2,4,1,0,0,0,2,4,3,4,2,0,3,3,1,2,4,4,3,3,2,1,1,2,3,3,4,4,4,3,3,4,5,4,3,3,6,6,4,4,3,4,4,3,3,4,4,4,4,4,4,4,5,5,4,4,4,4,4,4,5,4,1,0,0,3,3,3,4,3,3,3,3,4,5,5,1,3,4,3,3,3,3,3,0,0,0,3,4,3,0,3,3,5,6,5,2,0,2,4,2,3,1,0,3,4,4,3,11,9,4,3,1,2,2,1,0,0,0,0,0,0,0,0,3,3,0,1,3,3,1,0,3,3,0,0,0,0,0,0,3,3,0,1,2,2,1,0,2,4,3,6,6,6,6,5,3,3,3,3,0,0,0,0,3,3,0,0,0,3,3,1,2,4,4,3,3,2,1,0,0,0,0,1,4,2,3,3,3,4,4,4,4,1,3,4,3,0,3,3,4,2,0,0,2,3,3,3,4,4,4,2,4,2,0,0,0,0,0,1,1,1,0,0,0,0,0,0,2,4,3,2,1,3,4,2,2,1,1,0,0,1,3,3,2,4,2,1,5,5,3,4,7,6,3,3,0,0,1,3,9,9,10,9,7,4,5,5,10,19,14,8,19,22,-1,-1,-1,-1,-1,-1,-1,-1,-1,-1,-1,-1,-1,-1,-1,-1,-1,-1,-1,-1,-1,-1,-1,-1,-1,-1,-1,-1,-1,-1
-1,-1,-1,-1,-1,-1,-1,-1,-1,-1,-1,-1,-1,-1,-1,-1,-1,-1,-1,-1,-1,-1,-1,-1,-1,-1,-1,-1,-1,-1,-1,-1,-1,-1,-1,-1,-1,-1,-1,19,13,5,6,4,4,6,7,6,3,4,6,6,5,1,0,3,3,0,0,1,3,4,3,2,1,0,0,0,0,1,4,2,0,0,0,0,0,0,0,0,0,0,0,0,0,0,0,0,0,0,0,0,1,2,3,3,3,3,3,5,6,4,4,4,4,4,5,5,3,3,4,5,5,4,4,4,4,4,3,3,4,3,3,4,4,3,3,4,2,2,4,3,1,0,0,3,3,0,0,3,3,0,0,0,0,3,3,1,4,2,1,5,3,4,4,2,1,0,0,0,0,0,0,1,3,4,3,2,2,4,2,2,4,4,4,5,3,3,3,4,4,3,3,5,5,4,4,4,4,4,4,3,2,3,3,3,3,3,3,2,1,0,0,0,3,3,4,4,3,2,4,3,4,4,3,0,3,4,3,3,3,3,3,0,0,0,3,4,3,0,3,3,3,4,4,3,0,1,4,3,4,2,1,3,4,5,4,8,9,4,3,0,0,0,0,0,0,0,0,0,0,1,2,4,2,0,1,2,4,4,3,4,2,0,0,0,0,0,0,3,3,1,3,4,4,3,1,3,3,3,4,4,4,4,3,3,3,4,2,0,0,0,0,2,4,2,2,2,4,2,3,4,3,3,2,1,0,0,0,0,0,1,3,3,1,4,2,3,4,4,3,3,3,3,4,3,1,2,4,2,4,3,3,3,6,3,2,2,2,1,2,4,1,0,0,0,0,0,1,2,1,0,0,0,0,0,0,3,3,0,0,1,3,3,1,0,0,0,0,0,0,1,3,3,2,4,2,3,4,3,4,7,7,2,4,1,0,2,4,10,10,8,9,8,4,3,2,16,16,16,19,8,20,27,-1,-1,-1,-1,-1,-1,-1,-1,-1,-1,-1,-1,-1,-1,-1,-1,-1,-1,-1,-1,-1,-1,-1,-1,-1,-1,-1,-1,-1
-1,-1,-1,-1,-1,-1,-1,-1,-1,-1,-1,-1,-1,-1,-1,-1,-1,-1,-1,-1,-1,-1,-1,-1,-1,-1,-1,-1,-1,-1,-1,-1,-1,-1,-1,-1,-1,-1,-1,19,8,4,5,5,3,5,8,6,1,3,4,4,3,0,1,4,5,0,0,0,1,2,3,4,4,2,1,0,1,3,3,1,0,0,0,0,0,0,0,0,0,0,0,0,0,1,2,3,3,3,3,3,5,5,4,6,7,8,8,8,7,5,7,7,6,4,6,7,6,4,7,8,6,4,4,4,4,4,4,4,4,4,4,2,1,0,0,2,4,2,1,3,3,1,0,3,3,0,0,3,3,0,0,0,0,2,4,4,3,1,3,4,5,3,1,0,0,0,0,0,0,0,1,3,3,1,0,0,0,3,3,0,1,2,2,3,4,3,4,4,3,3,3,3,6,3,3,4,4,4,3,3,4,3,3,3,3,3,3,2,1,0,0,1,5,4,3,5,4,1,4,4,4,4,3,0,3,4,3,3,3,3,3,0,0,0,3,4,3,0,3,3,3,4,4,3,0,1,4,4,4,3,3,2,4,6,5,8,5,4,3,0,0,0,0,0,0,0,0,0,1,3,4,2,2,3,2,1,1,2,3,2,1,0,0,0,0,0,0,3,3,2,4,1,1,4,2,3,3,3,4,4,4,4,3,3,4,4,1,0,0,0,0,1,2,4,3,4,2,3,3,3,4,3,4,4,3,3,3,3,3,4,3,2,4,3,2,4,4,4,3,1,4,3,5,5,3,3,4,2,2,3,3,6,3,2,1,0,0,0,2,4,3,3,2,1,0,0,1,1,1,0,0,0,0,0,0,3,3,0,0,1,2,4,4,2,1,0,0,0,0,0,1,4,2,2,4,3,4,4,3,4,5,4,4,2,0,3,3,7,8,5,7,8,6,6,4,7,23,10,12,12,19,26,-1,-1,-1,-1,-1,-1,-1,-1,-1,-1,-1,-1,-1,-1,-1,-1,-1,-1,-1,-1,-1,-1,-1,-1,-1,-1,-1,-1,-1
-1,-1,-1,-1,-1,-1,-1,-1,-1,-1,-1,-1,-1,-1,-1,-1,-1,-1,-1,-1,-1,-1,-1,-1,-1,-1,-1,-1,-1,-1,-1,-1,-1,-1,-1,-1,-1,-1,100,24,10,5,4,2,3,6,6,3,4,4,4,4,3,2,4,6,7,3,2,1,0,0,0,1,2,4,4,3,4,3,2,2,1,0,0,0,0,0,0,0,0,0,0,1,2,4,4,4,4,4,4,6,7,6,4,6,8,8,8,7,7,8,8,8,8,7,5,7,8,8,9,8,5,4,4,4,4,5,5,4,4,3,4,3,1,0,0,1,2,4,4,2,3,3,1,2,4,1,0,2,4,1,0,0,0,1,2,2,1,3,3,1,3,4,2,1,0,0,0,0,0,0,2,4,1,0,0,0,0,2,4,1,0,1,2,2,2,3,2,1,0,0,0,2,4,1,2,4,4,2,4,2,2,3,3,3,3,3,3,4,2,0,1,4,4,4,1,6,6,3,2,5,6,6,5,1,3,4,3,3,3,3,3,0,0,0,3,4,3,0,3,3,5,6,5,2,0,2,4,3,4,4,3,2,2,3,7,6,3,4,3,1,2,2,1,0,0,0,0,1,3,3,1,2,4,3,3,1,0,0,0,0,0,0,0,0,0,0,0,3,3,3,3,0,0,3,3,3,3,4,4,4,4,4,3,5,5,2,0,0,0,0,0,1,2,3,4,3,4,3,3,3,1,0,1,2,3,3,4,4,3,3,4,4,3,4,4,2,3,4,3,0,2,4,5,3,2,4,3,4,1,0,0,2,4,3,3,3,2,1,1,2,3,3,4,4,2,1,0,1,2,3,3,3,3,3,3,6,3,3,3,3,3,3,2,4,1,0,0,0,0,0,0,3,3,1,3,4,5,4,3,4,5,6,5,5,1,3,3,4,5,4,4,6,6,3,2,15,15,13,19,20,9,23,-1,-1,-1,-1,-1,-1,-1,-1,-1,-1,-1,-1,-1,-1,-1,-1,-1,-1,-1,-1,-1,-1,-1,-1,-1,-1,-1,-1,-1
-1,-1,-1,-1,-1,-1,-1,-1,-1,-1,-1,-1,-1,-1,-1,-1,-1,-1,-1,-1,-1,-1,-1,-1,-1,-1,-1,-1,-1,-1,-1,-1,-1,-1,-1,-1,-1,-1,-1,17,10,3,4,1,3,4,4,3,2,4,6,4,3,4,2,6,5,3,4,3,1,0,0,1,1,1,2,3,2,3,4,4,2,0,0,0,0,0,0,0,0,0,1,3,4,3,4,4,4,4,4,6,7,6,4,6,6,4,4,4,7,6,5,4,7,8,7,5,7,8,8,9,4,3,4,4,4,5,4,3,4,4,2,3,3,1,1,1,1,2,2,4,2,3,3,1,3,3,1,1,3,3,1,0,0,0,0,1,3,3,3,3,2,2,4,3,1,0,0,0,0,0,3,3,0,0,1,1,1,1,3,4,3,4,4,4,2,0,0,0,0,0,0,1,3,3,3,3,3,3,2,4,1,0,0,0,0,0,0,3,3,1,3,4,5,1,3,5,5,3,3,5,6,6,5,2,3,4,3,3,3,3,3,0,0,0,3,4,3,0,3,4,5,6,5,1,0,3,3,4,2,2,2,1,1,3,6,4,2,5,5,3,4,4,3,1,0,0,0,2,4,1,0,2,4,4,3,1,0,0,0,0,0,0,0,0,0,0,0,3,3,3,3,0,0,3,3,5,5,3,5,6,6,6,4,4,5,1,0,0,0,0,1,3,4,3,3,3,2,3,3,2,1,0,0,0,1,3,4,4,3,4,2,3,4,2,2,2,3,4,3,0,1,4,4,3,0,3,3,4,2,0,0,1,3,3,3,3,4,4,3,2,1,0,1,2,4,4,3,4,4,3,3,3,3,3,3,4,7,3,3,3,3,3,3,2,1,0,0,0,0,0,0,2,4,3,2,4,4,5,6,3,6,6,6,5,2,2,4,1,1,3,5,7,7,4,2,5,8,18,15,11,13,11,-1,-1,-1,-1,-1,-1,-1,-1,-1,-1,-1,-1,-1,-1,-1,-1,-1,-1,-1,-1,-1,-1,-1,-1,-1,-1,-1,-1,-1
-1,-1,-1,-1,-1,-1,-1,-1,-1,-1,-1,-1,-1,-1,-1,-1,-1,-1,-1,-1,-1,-1,-1,-1,-1,-1,-1,-1,-1,-1,-1,-1,-1,-1,-1,-1,-1,-1,-1,4,6,3,3,0,3,4,6,4,5,9,6,2,1,1,1,6,3,0,1,3,4,3,3,3,4,1,1,2,4,3,2,3,6,3,2,1,0,0,1,1,1,0,1,3,3,4,5,5,3,4,4,6,6,6,7,10,7,8,8,8,7,7,7,9,7,7,7,8,7,6,4,7,10,6,3,3,4,4,5,6,5,4,5,5,4,5,4,5,3,4,1,2,4,2,3,4,2,4,2,2,3,3,1,0,0,0,0,1,3,4,5,4,2,0,2,3,1,0,0,0,0,1,4,2,0,0,1,2,5,4,3,2,2,2,3,4,2,0,0,0,0,0,0,0,1,3,4,8,8,4,3,5,3,3,3,3,3,3,3,6,3,4,3,3,3,3,3,5,3,1,4,4,4,4,5,6,3,7,7,4,5,2,4,1,0,0,2,5,5,1,3,4,5,6,5,1,2,6,4,3,1,0,0,1,5,5,4,6,1,5,4,2,3,3,3,1,0,0,1,4,2,1,2,3,2,2,3,3,3,2,1,0,0,0,0,1,2,3,3,4,2,4,2,0,1,4,2,6,7,2,5,6,6,6,5,4,5,4,1,0,0,1,3,3,1,0,1,2,4,3,2,2,1,1,2,3,4,3,1,1,1,1,3,3,1,2,4,3,6,5,2,0,1,5,5,2,1,3,3,2,4,3,2,1,2,1,0,0,1,3,4,4,1,0,1,2,2,2,3,1,2,1,1,1,1,1,4,7,5,6,8,8,7,4,1,0,0,0,1,2,3,2,1,2,2,2,4,2,5,6,3,4,4,4,4,4,3,1,3,3,2,7,2,5,7,9,5,4,6,13,21,11,9,8,-1,-1,-1,-1,-1,-1,-1,-1,-1,-1,-1,-1,-1,-1,-1,-1,-1,-1,-1,-1,-1,-1,-1,-1,-1,-1,-1,-1,-1
-1,-1,-1,-1,-1,-1,-1,-1,-1,-1,-1,-1,-1,-1,-1,-1,-1,-1,-1,-1,-1,-1,-1,-1,-1,-1,-1,-1,-1,-1,-1,-1,-1,-1,-1,-1,-1,-1,-1,7,5,4,3,1,4,6,7,7,5,6,7,1,0,0,1,4,3,0,0,1,2,3,3,6,3,1,2,4,2,2,4,6,3,2,4,1,0,0,2,4,2,1,3,5,6,5,5,6,5,5,4,6,6,7,8,7,10,8,8,8,8,8,8,7,10,8,6,7,8,6,4,8,7,7,5,3,3,4,6,7,6,4,5,4,5,4,5,3,2,2,3,3,3,4,4,3,4,4,4,3,3,2,1,0,0,0,0,1,2,6,3,2,2,1,2,4,1,0,0,0,0,2,4,1,0,0,1,1,4,5,3,3,3,3,3,2,1,0,0,0,0,0,0,1,2,3,4,7,7,6,4,5,5,3,3,3,3,3,3,3,6,2,1,3,4,4,2,5,5,2,3,4,4,3,5,3,6,4,7,7,5,2,3,3,1,0,1,5,5,2,3,3,5,7,6,2,3,4,5,2,0,0,1,2,5,4,2,6,5,2,1,2,3,3,2,1,0,1,3,3,1,2,4,3,3,3,3,3,3,4,2,0,0,0,1,3,4,3,3,2,2,3,2,1,3,3,1,7,6,5,6,5,4,3,4,2,6,4,3,1,1,3,3,2,1,1,3,4,2,1,1,1,1,1,3,3,2,1,0,1,2,4,3,2,3,4,2,1,5,4,1,1,3,4,5,1,2,4,3,1,2,3,4,2,1,1,0,0,0,2,5,5,1,0,1,4,4,1,1,2,2,3,3,3,2,3,5,6,5,7,8,11,9,5,4,1,0,0,2,4,3,4,3,2,4,3,1,3,3,4,4,3,4,4,4,4,4,2,3,7,8,9,3,5,10,7,3,5,9,5,28,27,10,17,-1,-1,-1,-1,-1,-1,-1,-1,-1,-1,-1,-1,-1,-1,-1,-1,-1,-1,-1,-1,-1,-1,-1,-1,-1,-1,-1,-1,-1
-1,-1,-1,-1,-1,-1,-1,-1,-1,-1,-1,-1,-1,-1,-1,-1,-1,-1,-1,-1,-1,-1,-1,-1,-1,-1,-1,-1,-1,-1,-1,-1,-1,-1,-1,-1,-1,-1,5,5,4,4,3,4,5,9,6,5,4,4,2,0,0,1,4,2,0,0,0,0,0,0,0,3,3,0,2,4,2,1,2,3,6,3,2,1,0,0,2,2,3,4,4,5,6,6,5,4,7,6,6,9,7,7,7,8,6,4,4,6,7,8,8,10,7,6,8,7,6,7,6,6,6,6,7,6,4,4,4,6,5,4,4,4,4,3,4,2,2,3,4,4,5,5,4,5,5,5,5,4,2,0,0,0,0,0,0,0,0,3,3,1,2,1,3,3,0,0,0,0,0,3,3,0,0,0,0,3,3,0,0,0,1,2,3,2,1,0,0,0,0,0,0,2,4,3,3,3,3,4,4,4,3,3,3,3,3,3,3,4,2,0,1,4,4,3,3,4,4,2,3,4,4,3,3,3,2,4,3,4,4,4,1,4,2,0,0,3,4,3,3,3,3,6,4,2,4,2,4,2,0,1,3,3,1,2,3,8,6,0,0,3,3,0,0,1,2,4,3,1,1,4,2,0,0,0,0,0,0,2,4,1,0,0,2,4,1,0,0,0,1,3,4,4,3,1,3,6,6,4,6,5,4,2,2,4,2,4,3,4,4,3,3,3,3,3,3,1,0,0,0,0,0,1,3,3,1,0,0,4,5,4,4,4,3,3,3,4,2,0,0,2,4,3,3,1,2,4,2,0,0,1,4,2,0,1,1,1,0,2,4,2,1,0,1,2,2,1,2,4,4,3,3,3,1,3,4,4,5,6,4,3,5,6,6,4,1,0,3,3,0,1,4,3,4,4,4,4,4,5,3,4,6,6,6,5,3,3,4,5,4,6,5,3,8,8,3,5,16,9,34,21,19,36,-1,-1,-1,-1,-1,-1,-1,-1,-1,-1,-1,-1,-1,-1,-1,-1,-1,-1,-1,-1,-1,-1,-1,-1,-1,-1,-1,-1,-1
-1,-1,-1,-1,-1,-1,-1,-1,-1,-1,-1,-1,-1,-1,-1,-1,-1,-1,-1,-1,-1,-1,-1,-1,-1,-1,-1,-1,-1,-1,-1,-1,-1,-1,-1,-1,-1,-1,2,4,4,6,4,5,7,7,6,4,3,4,2,2,1,2,4,1,0,0,0,0,0,0,0,3,3,0,1,2,4,4,3,4,2,1,2,3,3,3,3,3,2,2,4,6,6,6,5,5,7,5,7,7,9,7,8,7,5,7,8,8,8,8,9,9,9,7,7,8,6,7,7,6,7,5,7,7,6,4,4,6,6,5,3,5,4,5,3,4,4,4,4,3,5,4,3,8,6,5,5,4,3,0,1,1,1,0,0,0,1,4,2,1,1,1,3,3,0,0,0,0,0,2,4,1,0,0,1,5,3,3,3,3,4,4,3,4,4,3,3,3,3,3,3,6,3,3,3,3,5,5,4,4,4,4,4,4,4,4,4,4,3,3,4,3,3,3,4,2,1,1,3,4,4,3,2,4,1,4,3,5,5,3,3,2,4,3,3,4,4,3,2,4,3,4,4,4,2,4,3,3,1,3,3,1,3,4,3,4,5,0,0,3,3,0,1,3,4,2,1,1,3,3,1,0,0,0,1,2,2,1,3,4,3,3,4,2,0,0,0,0,0,1,2,2,1,4,4,7,6,4,4,4,4,1,1,1,2,4,2,2,2,3,3,3,3,3,1,0,0,0,1,1,1,0,1,4,2,0,0,6,8,3,2,2,4,4,3,2,2,3,3,4,2,3,3,1,3,3,1,0,0,2,4,1,0,2,4,2,0,1,4,2,0,0,0,1,2,5,5,4,2,1,3,3,0,3,4,5,10,6,3,3,5,6,6,5,4,1,4,2,0,0,2,4,2,2,1,1,5,4,3,5,6,6,6,5,2,1,1,3,2,4,4,6,8,7,3,4,17,19,15,25,8,31,7,-1,-1,-1,-1,-1,-1,-1,-1,-1,-1,-1,-1,-1,-1,-1,-1,-1,-1,-1,-1,-1,-1,-1,-1,-1,-1,-1,-1
-1,-1,-1,-1,-1,-1,-1,-1,-1,-1,-1,-1,-1,-1,-1,-1,-1,-1,-1,-1,-1,-1,-1,-1,-1,-1,-1,-1,-1,-1,-1,-1,-1,-1,-1,-1,-1,-1,2,3,7,5,7,8,6,5,3,3,4,3,4,4,2,2,4,1,0,0,0,0,0,1,2,4,2,0,0,0,1,2,3,2,1,3,4,3,4,3,3,2,1,3,4,6,6,5,3,5,7,6,7,6,7,7,6,6,7,8,8,7,7,8,8,7,7,7,7,6,7,5,7,7,7,6,6,7,6,4,4,6,5,5,5,4,4,4,4,4,4,4,3,2,1,4,2,6,7,3,4,4,4,3,4,3,2,0,0,0,2,4,1,0,0,1,4,2,2,3,2,2,2,2,3,4,3,3,4,4,6,3,3,3,2,2,3,3,4,4,4,4,4,4,4,6,6,4,4,4,5,5,4,4,4,4,4,4,4,4,4,4,3,3,2,1,4,3,4,1,0,0,3,4,4,4,1,3,3,2,4,5,4,3,3,3,2,3,3,2,2,4,1,4,4,4,3,3,3,4,4,3,2,4,1,2,4,1,1,4,2,0,1,4,2,1,3,3,1,2,3,4,3,1,0,0,0,1,3,4,4,3,1,2,3,3,2,1,0,0,0,0,0,0,0,1,4,4,5,6,5,3,4,4,3,0,0,1,2,4,2,0,2,4,1,1,1,1,1,2,3,3,4,3,4,3,3,4,2,0,0,7,7,0,2,4,2,1,1,3,4,3,3,2,1,4,2,2,4,1,0,1,2,3,5,1,0,3,2,4,1,0,3,3,2,3,3,5,5,6,6,5,4,0,2,4,3,4,2,8,8,8,8,4,1,5,5,9,7,2,4,1,0,0,1,3,4,3,2,1,3,3,3,5,6,4,4,4,3,0,0,3,2,4,4,5,5,5,5,11,8,13,10,20,20,8,20,-1,-1,-1,-1,-1,-1,-1,-1,-1,-1,-1,-1,-1,-1,-1,-1,-1,-1,-1,-1,-1,-1,-1,-1,-1,-1,-1,-1
-1,-1,-1,-1,-1,-1,-1,-1,-1,-1,-1,-1,-1,-1,-1,-1,-1,-1,-1,-1,-1,-1,-1,-1,-1,-1,-1,-1,-1,-1,-1,-1,-1,-1,-1,-1,-1,-1,5,5,5,4,7,8,5,5,3,2,4,3,3,4,2,1,4,2,0,0,0,0,1,3,4,2,1,0,0,0,0,0,0,0,2,4,1,3,3,4,3,2,3,4,5,6,6,5,4,8,7,5,5,5,6,6,4,6,7,6,6,7,8,8,8,8,8,7,7,7,7,6,6,7,6,7,6,6,7,4,4,4,7,6,6,6,5,4,5,4,4,4,4,4,3,3,3,5,4,4,4,4,2,3,2,3,3,0,0,0,3,3,1,2,3,4,3,3,4,3,4,5,5,4,4,4,4,4,4,4,2,2,3,3,4,4,4,4,4,4,4,4,4,4,4,5,5,3,3,4,4,4,4,3,4,4,4,4,3,3,3,4,4,2,2,3,3,3,3,1,1,1,2,5,5,3,4,2,3,3,3,4,5,4,2,3,3,1,0,0,1,4,2,3,4,5,5,1,4,4,4,3,2,4,1,3,3,1,3,3,1,0,2,4,1,3,3,1,3,4,3,2,1,0,0,0,0,2,4,1,1,3,4,2,1,0,0,0,0,0,0,0,0,0,1,3,4,5,4,6,5,4,3,4,2,0,0,2,4,2,1,1,4,2,0,1,2,3,4,4,3,4,4,3,4,4,4,4,3,3,3,8,6,2,4,2,1,2,4,3,2,1,0,0,2,4,1,3,3,0,1,3,4,6,5,2,0,3,3,4,2,0,2,3,4,4,6,9,7,8,6,7,8,1,1,2,3,2,1,4,8,9,8,5,5,6,4,11,8,3,3,0,0,0,0,1,2,3,4,2,3,3,1,7,7,4,6,4,3,0,0,3,3,2,3,2,5,7,7,10,10,20,16,8,18,25,23,-1,-1,-1,-1,-1,-1,-1,-1,-1,-1,-1,-1,-1,-1,-1,-1,-1,-1,-1,-1,-1,-1,-1,-1,-1,-1,-1,-1
-1,-1,-1,-1,-1,-1,-1,-1,-1,-1,-1,-1,-1,-1,-1,-1,-1,-1,-1,-1,-1,-1,-1,-1,-1,-1,-1,-1,-1,-1,-1,-1,-1,-1,-1,-1,-1,-1,6,6,4,2,6,8,8,7,2,2,4,2,3,3,1,1,2,4,1,0,0,1,3,3,1,0,0,0,0,0,0,0,0,0,2,4,2,4,3,4,4,4,5,5,6,6,6,6,5,7,8,3,5,6,6,6,6,7,6,7,8,7,7,8,8,9,9,8,7,7,6,7,6,6,6,7,8,7,7,6,6,6,7,7,6,7,7,6,6,4,4,4,5,4,4,3,4,3,4,5,5,4,2,0,0,3,3,0,0,0,3,3,2,4,3,3,4,3,2,3,3,5,5,4,3,3,3,3,3,3,4,4,3,4,4,4,4,3,4,4,4,4,4,4,4,3,2,2,4,4,3,3,3,5,5,3,3,4,3,1,0,1,2,4,3,3,1,3,3,2,3,3,1,5,4,4,3,4,2,3,3,5,5,3,4,1,3,3,1,0,0,3,3,3,3,5,4,3,2,4,6,3,1,3,3,3,3,1,3,2,0,0,3,3,2,4,1,2,4,1,0,0,0,0,0,0,1,4,2,0,0,1,2,4,2,0,0,0,0,0,0,0,0,0,2,4,5,5,4,5,6,2,3,3,1,0,0,3,3,2,3,4,3,2,3,5,5,4,4,3,4,4,3,3,4,4,4,4,4,4,4,7,5,4,2,2,4,4,2,3,3,4,2,2,4,2,0,3,3,0,2,4,2,3,6,5,1,4,2,3,3,0,1,2,4,5,8,8,9,7,6,9,7,2,0,0,0,0,2,5,7,7,6,5,5,6,6,8,7,3,3,0,0,0,0,0,0,0,3,3,3,3,0,6,7,6,7,6,5,1,0,2,4,1,1,3,4,6,5,6,4,14,25,25,16,22,17,-1,-1,-1,-1,-1,-1,-1,-1,-1,-1,-1,-1,-1,-1,-1,-1,-1,-1,-1,-1,-1,-1,-1,-1,-1,-1,-1,-1
-1,-1,-1,-1,-1,-1,-1,-1,-1,-1,-1,-1,-1,-1,-1,-1,-1,-1,-1,-1,-1,-1,-1,-1,-1,-1,-1,-1,-1,-1,-1,-1,-1,-1,-1,-1,-1,-1,4,5,2,1,6,8,9,6,2,1,4,2,1,1,3,3,3,4,2,0,0,2,4,1,0,0,0,0,0,0,0,0,0,1,2,4,4,4,4,3,4,4,5,5,6,7,6,5,4,6,6,4,5,6,6,5,5,6,6,8,7,6,7,5,7,8,8,6,7,7,6,7,6,6,6,6,7,8,7,5,6,4,6,7,7,6,7,7,6,4,4,4,6,6,5,5,4,4,3,5,5,4,3,0,0,3,3,0,0,0,3,3,4,2,3,4,2,3,4,3,3,2,3,2,4,4,3,3,4,4,2,1,3,4,3,3,3,4,4,3,3,3,3,3,3,4,2,4,2,1,2,4,3,3,5,3,1,1,3,3,1,0,0,1,1,1,0,3,3,3,3,3,3,2,4,2,4,4,5,1,4,4,4,3,4,2,1,3,3,1,0,3,3,3,3,3,3,3,3,7,7,3,0,1,4,3,4,1,4,2,0,0,3,3,3,3,1,4,2,0,0,0,0,0,0,0,2,4,1,0,0,0,0,3,3,0,0,0,0,0,0,0,0,0,3,4,5,6,5,3,3,2,4,1,0,0,0,2,3,4,3,3,4,4,3,3,6,3,3,3,3,3,3,4,4,3,3,3,4,4,4,6,5,3,4,4,3,3,4,3,2,2,4,3,3,1,0,3,3,1,4,3,4,6,6,5,3,4,1,3,3,0,0,4,5,7,8,9,7,4,4,8,8,3,0,1,2,2,3,3,4,4,4,3,2,5,6,5,4,4,2,0,0,0,0,0,0,1,4,2,3,3,0,5,5,6,6,6,4,3,1,1,4,2,1,3,3,4,7,2,15,21,9,11,6,16,14,-1,-1,-1,-1,-1,-1,-1,-1,-1,-1,-1,-1,-1,-1,-1,-1,-1,-1,-1,-1,-1,-1,-1,-1,-1,-1,-1,-1
-1,-1,-1,-1,-1,-1,-1,-1,-1,-1,-1,-1,-1,-1,-1,-1,-1,-1,-1,-1,-1,-1,-1,-1,-1,-1,-1,-1,-1,-1,-1,-1,-1,-1,-1,-1,-1,-1,2,8,9,3,5,9,9,7,3,2,4,2,0,1,5,7,6,5,2,0,0,3,3,0,0,0,0,0,0,0,0,1,2,3,5,6,6,5,2,1,1,2,5,8,10,7,5,6,5,11,7,9,9,8,5,5,5,8,8,6,8,12,11,12,9,8,7,10,7,9,9,6,6,6,7,4,3,5,6,6,4,3,4,5,5,7,6,9,11,8,6,4,6,6,6,5,3,5,5,3,4,4,4,3,5,4,7,2,1,1,4,3,4,2,3,2,1,3,3,1,0,1,2,1,1,3,4,4,4,3,3,4,3,2,4,4,3,3,1,0,1,2,3,3,3,4,7,4,3,3,4,2,2,4,3,3,4,3,2,3,4,3,3,3,3,3,3,4,2,5,4,1,3,3,3,4,2,6,4,2,5,5,3,4,3,3,0,1,3,4,3,6,3,4,2,3,3,2,5,8,7,3,0,0,2,4,4,5,3,5,1,0,3,3,3,3,1,3,3,3,3,3,3,3,3,3,4,2,0,0,0,0,0,3,3,0,0,0,0,0,0,1,1,1,3,4,4,4,3,5,3,4,2,0,1,2,3,2,1,1,1,3,3,1,1,4,2,0,0,1,4,4,4,3,1,0,1,3,4,4,6,7,6,4,4,4,4,3,2,1,2,2,1,1,1,2,3,4,2,1,3,4,6,8,7,5,3,4,1,2,4,2,1,4,8,7,7,8,8,6,4,8,8,3,0,1,4,4,3,3,3,5,3,3,5,4,4,2,4,3,1,0,1,1,1,2,2,2,4,1,2,4,1,2,3,7,6,5,5,3,1,4,7,5,5,2,3,7,8,9,6,12,11,8,5,9,15,-1,-1,-1,-1,-1,-1,-1,-1,-1,-1,-1,-1,-1,-1,-1,-1,-1,-1,-1,-1,-1,-1,-1,-1,-1,-1,-1,-1
-1,-1,-1,-1,-1,-1,-1,-1,-1,-1,-1,-1,-1,-1,-1,-1,-1,-1,-1,-1,-1,-1,-1,-1,-1,-1,-1,-1,-1,-1,-1,-1,-1,-1,-1,-1,-1,-1,6,8,8,6,6,10,9,7,4,4,2,1,0,1,5,7,6,4,1,0,0,2,4,1,0,0,0,0,0,0,0,1,3,6,3,6,6,5,1,2,2,4,5,7,9,6,5,5,5,8,11,7,9,8,5,5,7,7,8,6,9,11,12,11,9,8,9,8,10,9,7,7,10,7,7,5,5,3,5,6,6,6,4,5,4,7,6,8,10,9,5,4,4,6,6,6,6,6,5,4,6,5,2,3,4,9,5,4,2,2,4,3,3,2,3,1,1,3,3,1,0,2,1,3,4,4,3,3,3,3,3,2,3,4,2,1,3,3,2,1,3,4,3,3,3,5,4,5,3,3,2,2,4,2,1,1,2,3,4,3,2,3,3,3,3,3,3,2,1,4,6,1,2,3,2,3,3,6,7,3,5,5,3,4,4,3,0,0,1,2,3,3,6,2,1,3,3,2,5,6,6,4,3,3,3,3,5,4,5,5,4,0,3,3,3,3,1,5,6,2,2,3,3,3,3,3,2,1,0,0,0,0,0,2,4,3,3,2,1,0,0,2,4,2,3,4,4,4,4,5,6,2,1,0,1,3,3,4,2,0,1,3,3,1,2,4,1,0,0,1,6,5,5,4,2,3,4,3,2,4,5,6,5,3,3,2,1,0,0,1,4,4,1,1,3,4,3,2,1,1,3,3,6,6,5,4,1,4,2,1,2,4,2,5,7,8,11,10,6,8,7,9,7,2,0,1,2,2,1,1,2,5,4,2,4,4,2,5,8,4,1,0,1,2,2,4,4,4,3,0,1,4,3,2,5,7,4,5,7,6,2,5,6,6,6,4,2,8,9,7,3,6,10,10,6,4,12,9,-1,-1,-1,-1,-1,-1,-1,-1,-1,-1,-1,-1,-1,-1,-1,-1,-1,-1,-1,-1,-1,-1,-1,-1,-1,-1,-1
-1,-1,-1,-1,-1,-1,-1,-1,-1,-1,-1,-1,-1,-1,-1,-1,-1,-1,-1,-1,-1,-1,-1,-1,-1,-1,-1,-1,-1,-1,-1,-1,-1,-1,-1,-1,-1,-1,3,3,3,8,8,9,9,5,4,3,0,0,0,1,4,2,0,0,0,0,0,1,4,2,0,0,0,1,2,2,1,1,3,2,4,6,5,2,1,1,2,5,6,9,6,6,7,6,6,7,5,6,5,5,6,7,5,7,6,6,6,5,6,6,7,8,8,8,9,10,11,10,11,9,9,9,9,6,6,8,9,10,7,7,6,6,6,5,5,6,5,3,4,6,6,6,6,7,9,5,6,6,4,1,2,6,6,3,3,3,3,4,2,3,3,1,2,4,3,1,2,4,4,3,2,1,2,3,3,3,3,4,3,1,2,4,3,3,4,4,3,1,0,0,1,1,1,0,0,0,0,3,3,0,0,0,0,0,1,3,3,1,0,0,0,1,2,3,3,5,2,1,2,4,1,3,3,4,4,4,3,2,4,3,5,5,1,0,0,0,0,3,3,0,0,3,3,3,4,4,3,2,3,3,3,4,3,4,2,7,6,0,3,3,3,3,0,5,4,3,4,3,1,0,0,0,0,0,0,0,0,0,0,1,2,3,3,4,4,3,3,4,2,3,3,4,4,4,4,4,3,0,0,0,1,3,4,4,2,0,0,1,4,2,3,3,1,1,1,3,3,5,6,3,3,3,2,1,4,3,4,1,2,3,3,3,3,3,3,2,3,3,3,4,3,1,2,3,2,1,1,1,1,3,3,1,0,3,3,0,0,3,3,3,6,8,10,9,6,7,7,8,9,1,0,0,0,0,0,0,3,4,3,3,4,4,4,6,7,6,4,0,1,1,1,2,3,4,2,1,2,3,6,5,6,8,3,5,8,6,3,3,4,2,1,3,2,8,9,7,3,4,12,12,3,7,9,8,-1,-1,-1,-1,-1,-1,-1,-1,-1,-1,-1,-1,-1,-1,-1,-1,-1,-1,-1,-1,-1,-1,-1,-1,-1,-1,-1
-1,-1,-1,-1,-1,-1,-1,-1,-1,-1,-1,-1,-1,-1,-1,-1,-1,-1,-1,-1,-1,-1,-1,-1,-1,-1,-1,-1,-1,-1,-1,-1,-1,-1,-1,-1,-1,-1,3,3,4,9,10,10,8,4,2,2,1,0,0,0,2,4,3,2,1,0,0,0,2,4,2,1,0,2,4,4,3,1,1,3,4,5,5,1,0,1,5,7,8,7,9,7,6,6,6,6,6,6,6,6,7,6,7,7,7,7,6,7,7,7,8,8,8,10,9,10,11,11,11,11,10,10,10,9,7,9,9,7,7,7,7,6,5,5,5,7,8,4,4,5,6,5,4,7,6,7,6,6,5,2,1,4,5,3,3,4,3,4,3,3,2,4,4,2,2,4,4,2,2,3,3,4,4,3,3,3,4,4,3,4,4,2,1,1,3,4,3,3,2,1,2,4,2,0,0,0,0,3,3,0,0,0,0,0,0,1,3,4,3,3,3,4,4,3,3,2,1,1,4,2,1,3,2,2,5,6,6,2,2,4,5,4,4,2,1,0,1,4,2,1,2,4,2,3,4,4,3,0,0,0,0,1,4,3,4,6,7,1,3,3,3,3,0,3,3,0,1,4,2,0,0,0,0,0,0,0,0,0,0,0,0,0,0,1,2,3,3,2,3,3,3,4,4,4,4,4,3,0,0,0,0,1,2,2,1,0,0,0,3,3,3,3,2,3,3,3,3,3,4,4,3,0,0,1,3,3,4,2,4,3,3,3,3,3,3,4,3,4,3,3,3,4,4,3,4,4,3,3,4,3,1,1,1,3,3,0,0,3,3,2,5,6,8,11,8,7,5,8,7,0,0,0,0,0,0,0,3,4,3,3,7,8,7,4,5,8,7,1,1,1,2,4,4,2,1,3,4,6,6,3,7,8,4,5,6,5,3,3,3,3,0,3,2,8,9,7,3,4,10,12,5,7,9,13,-1,-1,-1,-1,-1,-1,-1,-1,-1,-1,-1,-1,-1,-1,-1,-1,-1,-1,-1,-1,-1,-1,-1,-1,-1,-1,-1
-1,-1,-1,-1,-1,-1,-1,-1,-1,-1,-1,-1,-1,-1,-1,-1,-1,-1,-1,-1,-1,-1,-1,-1,-1,-1,-1,-1,-1,-1,-1,-1,-1,-1,-1,-1,-1,-1,4,7,8,11,10,10,7,4,2,2,1,0,0,0,1,2,3,4,2,0,0,0,1,2,4,3,1,2,4,2,3,1,1,6,6,4,2,2,3,5,6,7,6,7,7,6,5,6,6,6,6,6,6,6,6,6,6,7,7,6,6,6,7,6,6,4,4,5,5,7,6,9,7,10,9,10,9,8,8,7,9,10,7,5,7,7,6,4,2,8,7,6,4,4,6,5,3,5,5,6,7,6,4,3,1,4,2,3,4,4,4,3,4,2,4,2,2,4,4,2,2,4,4,3,3,2,2,3,3,4,4,3,3,2,1,0,0,2,4,3,3,3,4,2,3,2,3,0,0,0,0,3,3,1,1,1,0,0,0,0,1,2,3,3,3,2,2,3,3,2,1,1,3,3,1,3,4,3,5,6,5,4,3,4,4,3,2,4,4,3,4,3,1,2,4,2,1,3,4,4,3,0,0,0,0,0,3,3,4,6,4,2,2,4,2,4,1,3,3,0,0,2,4,1,0,0,0,0,0,0,0,0,0,0,0,0,0,0,1,2,3,2,3,3,3,4,4,4,4,4,3,0,0,0,0,0,0,0,1,1,1,0,3,3,3,3,3,3,4,3,4,4,4,4,3,0,0,1,4,2,3,4,6,3,2,1,0,0,0,1,3,3,4,4,3,2,1,0,1,2,3,3,2,1,3,3,3,4,2,0,0,2,4,1,4,6,8,7,7,5,4,7,6,0,0,0,1,2,3,3,4,6,5,5,8,8,8,6,7,10,8,5,3,2,4,2,1,0,2,4,2,3,4,3,7,8,4,4,4,3,3,3,3,3,2,3,6,8,9,7,4,4,9,9,6,7,9,12,-1,-1,-1,-1,-1,-1,-1,-1,-1,-1,-1,-1,-1,-1,-1,-1,-1,-1,-1,-1,-1,-1,-1,-1,-1,-1,-1
-1,-1,-1,-1,-1,-1,-1,-1,-1,-1,-1,-1,-1,-1,-1,-1,-1,-1,-1,-1,-1,-1,-1,-1,-1,-1,-1,-1,-1,-1,-1,-1,-1,-1,-1,-1,-1,-1,6,9,10,9,8,9,5,3,2,1,1,0,0,0,0,0,0,3,3,0,0,0,0,0,1,4,2,1,3,3,3,1,3,5,6,4,3,4,3,5,6,6,6,7,6,5,6,6,6,6,6,6,6,7,6,9,9,8,6,7,7,6,5,5,5,4,4,4,4,6,6,6,8,7,9,9,9,7,7,9,9,7,8,7,6,6,6,6,5,5,6,4,5,5,6,4,3,6,6,5,7,7,6,5,2,4,1,4,4,4,4,5,3,6,3,4,4,2,1,3,4,2,1,1,2,4,4,3,3,2,1,0,0,0,0,0,0,3,3,0,0,0,3,3,3,2,3,0,0,0,0,3,3,1,2,1,0,1,1,1,0,1,2,3,3,4,4,3,3,4,4,2,2,4,4,3,4,4,6,6,4,3,3,4,6,6,3,2,2,3,2,1,0,3,3,0,0,3,4,4,4,1,0,0,0,1,4,2,4,4,4,4,1,4,2,4,2,2,4,2,1,1,4,2,0,0,0,0,0,0,0,0,0,0,0,0,0,0,2,4,3,4,2,3,3,4,4,4,4,4,3,0,0,0,0,0,0,1,3,3,3,1,3,3,3,3,3,3,2,4,4,4,6,6,3,2,1,1,4,2,2,5,3,3,4,2,0,0,0,2,4,3,2,1,0,0,0,0,0,0,0,0,0,2,4,3,3,3,1,0,0,1,3,3,1,4,6,6,4,4,4,3,5,3,3,3,4,4,3,3,2,6,7,7,6,4,5,4,8,9,9,7,3,4,3,0,0,0,3,4,2,4,4,4,7,8,4,5,6,5,3,3,5,5,5,6,3,6,8,8,3,3,8,8,4,8,9,12,-1,-1,-1,-1,-1,-1,-1,-1,-1,-1,-1,-1,-1,-1,-1,-1,-1,-1,-1,-1,-1,-1,-1,-1,-1,-1,-1
-1,-1,-1,-1,-1,-1,-1,-1,-1,-1,-1,-1,-1,-1,-1,-1,-1,-1,-1,-1,-1,-1,-1,-1,-1,-1,-1,-1,-1,-1,-1,-1,-1,-1,-1,-1,-1,-1,6,7,8,5,6,5,4,2,0,0,0,0,0,0,0,0,0,2,4,1,0,0,0,0,0,2,4,1,1,1,1,3,3,3,4,4,4,1,4,6,6,6,6,6,6,6,6,8,9,9,9,9,7,7,8,10,10,10,8,7,9,8,6,5,5,3,6,8,7,6,8,8,9,11,10,9,10,9,8,8,8,7,5,7,7,6,6,6,6,7,8,5,6,5,6,6,4,6,6,3,5,6,6,5,3,4,2,4,3,4,4,5,6,3,6,2,1,0,2,4,1,0,0,2,4,2,1,0,0,0,0,0,0,0,0,0,0,3,3,0,0,1,4,2,3,2,3,0,0,0,0,3,3,1,1,1,2,4,3,4,3,4,4,3,3,2,2,3,3,2,2,4,4,3,4,4,4,5,5,6,5,3,3,5,6,3,3,4,2,0,0,0,0,3,3,0,0,3,4,3,4,2,2,3,3,4,3,4,4,4,2,4,2,3,3,3,3,1,2,4,3,1,3,3,0,0,0,0,0,0,0,0,0,0,0,0,0,0,2,4,3,4,2,3,3,4,4,4,4,4,3,0,0,0,0,1,2,4,3,2,3,3,3,3,3,3,3,3,1,2,3,3,5,6,6,4,4,4,3,2,4,3,2,3,4,2,1,2,3,4,2,0,0,0,0,0,0,0,0,0,0,0,0,3,3,1,1,1,0,0,0,0,1,4,2,1,4,5,4,3,2,1,2,3,3,3,2,1,0,0,2,4,7,8,7,5,3,5,10,9,7,4,2,2,4,3,3,2,2,4,2,3,3,4,7,8,5,5,7,7,6,4,4,6,5,4,2,5,7,9,4,6,9,8,4,8,9,13,-1,-1,-1,-1,-1,-1,-1,-1,-1,-1,-1,-1,-1,-1,-1,-1,-1,-1,-1,-1,-1,-1,-1,-1,-1,-1,-1
-1,-1,-1,-1,-1,-1,-1,-1,-1,-1,-1,-1,-1,-1,-1,-1,-1,-1,-1,-1,-1,-1,-1,-1,-1,-1,-1,-1,-1,-1,-1,-1,-1,-1,-1,-1,-1,-1,6,6,5,4,2,4,3,4,1,0,0,0,0,0,0,0,0,1,3,3,1,0,0,0,0,1,3,3,1,1,3,3,1,3,4,5,5,2,5,6,7,6,6,6,6,6,6,9,11,9,9,9,9,7,7,9,9,10,7,7,7,9,6,4,3,5,7,8,8,6,7,8,8,10,9,9,9,7,10,10,9,7,6,6,6,6,6,6,5,8,7,5,6,6,6,5,5,9,8,4,5,7,7,6,5,4,4,3,3,4,4,4,3,3,3,0,0,0,3,3,0,0,0,3,3,0,0,0,0,0,0,0,0,0,0,0,0,2,4,2,1,2,4,1,3,2,3,0,0,0,0,3,3,1,2,4,4,3,3,4,4,3,1,0,1,3,4,3,3,4,4,3,4,4,4,3,3,6,6,6,5,2,4,4,4,3,0,2,4,1,0,0,0,3,3,0,0,3,4,3,3,4,4,3,3,2,3,4,6,2,1,3,3,3,3,3,3,0,0,1,4,2,3,3,0,0,0,0,0,0,0,0,0,1,2,3,2,1,1,2,3,2,3,3,3,4,4,4,4,4,3,0,0,0,1,3,4,2,1,0,1,4,4,3,3,3,3,3,1,2,3,5,4,5,5,4,4,4,4,4,3,4,4,3,2,2,4,4,3,3,1,0,0,0,0,0,0,0,0,0,0,0,0,3,3,0,0,0,0,0,0,0,0,3,3,0,1,2,4,3,1,1,2,3,3,2,1,0,0,0,2,4,8,9,7,7,5,5,8,8,6,3,0,1,2,3,4,4,2,4,2,2,4,2,6,7,6,3,6,4,3,5,3,4,2,4,3,5,9,10,6,5,9,9,6,8,10,12,-1,-1,-1,-1,-1,-1,-1,-1,-1,-1,-1,-1,-1,-1,-1,-1,-1,-1,-1,-1,-1,-1,-1,-1,-1,-1,-1
-1,-1,-1,-1,-1,-1,-1,-1,-1,-1,-1,-1,-1,-1,-1,-1,-1,-1,-1,-1,-1,-1,-1,-1,-1,-1,-1,-1,-1,-1,-1,-1,-1,-1,-1,-1,-1,-1,7,7,7,6,6,8,4,3,1,0,0,0,0,0,0,0,0,0,1,4,2,0,0,0,0,0,1,3,3,1,3,2,1,4,3,6,6,6,6,7,7,7,6,6,6,6,6,8,9,7,6,6,7,7,7,7,6,6,6,7,7,6,4,4,4,6,6,6,8,14,14,12,8,6,8,9,9,10,7,10,10,9,9,6,6,6,6,6,6,5,7,4,4,5,8,8,6,10,10,4,5,6,7,7,5,4,4,3,5,6,6,6,3,4,2,0,1,2,4,2,0,0,0,3,3,0,0,0,0,0,0,0,0,0,0,0,0,1,2,4,4,4,2,0,2,5,3,3,3,3,3,4,2,1,4,2,4,5,2,3,3,4,4,3,4,3,1,1,2,3,4,4,4,4,4,7,7,5,8,6,6,6,3,6,6,5,1,1,3,4,2,1,0,5,4,3,3,4,4,3,3,4,4,1,0,2,4,3,3,0,0,3,3,3,3,3,3,0,0,0,2,4,2,4,1,1,2,2,1,0,0,0,0,1,4,2,4,1,0,0,0,0,2,4,2,5,6,6,6,6,6,2,1,1,3,3,1,0,1,2,3,4,6,3,4,2,3,3,1,3,3,3,5,3,5,2,4,4,4,4,4,2,1,2,4,4,2,1,1,2,1,0,0,0,0,0,0,1,2,3,3,3,3,4,2,0,0,0,0,0,0,1,2,4,2,0,0,0,1,4,2,4,5,4,4,5,2,2,1,1,2,6,8,12,13,11,8,6,6,5,4,2,0,1,2,3,4,3,4,2,4,3,5,5,8,7,4,6,4,2,2,4,3,4,2,4,3,3,7,10,7,5,11,9,6,12,12,15,24,-1,-1,-1,-1,-1,-1,-1,-1,-1,-1,-1,-1,-1,-1,-1,-1,-1,-1,-1,-1,-1,-1,-1,-1,-1,-1
-1,-1,-1,-1,-1,-1,-1,-1,-1,-1,-1,-1,-1,-1,-1,-1,-1,-1,-1,-1,-1,-1,-1,-1,-1,-1,-1,-1,-1,-1,-1,-1,-1,-1,-1,-1,-1,-1,11,7,7,5,7,7,6,3,1,0,0,0,0,0,0,0,0,0,0,3,3,0,0,0,0,0,0,1,4,2,4,2,2,4,2,5,7,6,6,7,7,7,7,6,6,6,5,6,9,8,5,7,6,7,7,6,6,6,6,7,7,6,4,6,7,8,6,8,11,14,16,12,9,6,9,9,9,7,10,9,9,9,8,7,6,6,6,7,6,6,5,4,4,4,8,11,6,8,8,6,5,6,6,8,9,6,6,4,5,6,6,6,6,2,1,0,2,4,2,1,0,0,0,3,3,0,0,0,0,0,0,0,0,0,0,0,0,0,0,1,2,2,1,0,1,3,6,3,3,3,3,2,1,1,2,3,6,3,4,2,0,1,2,3,2,1,0,1,3,3,3,3,3,3,5,6,7,10,7,6,6,3,6,6,6,4,4,3,2,2,4,4,3,7,6,2,2,3,3,3,3,3,3,3,1,3,3,3,3,0,0,2,4,3,3,2,4,1,0,0,1,4,2,4,2,2,4,4,2,0,0,0,0,2,2,2,2,3,3,3,3,2,1,4,3,5,6,6,6,6,3,4,2,2,4,1,0,0,2,4,3,8,7,4,3,2,3,3,2,3,2,3,2,7,4,2,4,3,3,2,1,1,3,4,2,1,2,2,1,1,2,3,3,3,3,3,3,4,4,3,3,3,3,2,1,0,0,0,0,0,1,3,4,2,1,0,0,0,0,3,3,4,7,4,5,7,7,4,3,5,5,6,6,10,8,8,7,4,4,7,7,1,0,1,4,5,2,3,3,1,2,3,3,7,6,3,4,7,7,2,1,4,4,4,2,4,3,3,5,8,7,5,7,8,7,10,11,14,8,-1,-1,-1,-1,-1,-1,-1,-1,-1,-1,-1,-1,-1,-1,-1,-1,-1,-1,-1,-1,-1,-1,-1,-1,-1,-1
-1,-1,-1,-1,-1,-1,-1,-1,-1,-1,-1,-1,-1,-1,-1,-1,-1,-1,-1,-1,-1,-1,-1,-1,-1,-1,-1,-1,-1,-1,-1,-1,-1,-1,-1,-1,-1,-1,10,9,5,3,3,4,3,4,2,0,0,0,0,0,0,0,0,0,0,3,3,0,0,0,0,0,0,0,3,3,3,3,4,2,5,9,8,6,5,6,6,7,7,6,6,6,9,9,10,8,9,7,6,6,6,7,7,6,7,7,6,4,6,8,9,12,12,11,10,8,7,9,9,10,7,9,8,7,6,6,6,6,6,6,6,6,6,8,9,6,6,5,6,4,3,7,8,6,7,5,5,4,7,9,8,8,9,6,6,6,4,4,4,1,0,0,3,3,0,0,0,0,0,3,3,0,0,0,0,0,0,0,0,0,0,0,0,0,0,0,0,0,0,0,0,3,3,0,0,0,0,0,0,1,2,3,4,2,2,4,3,2,1,1,2,2,1,1,3,3,1,0,0,0,0,0,0,7,8,4,6,4,2,5,6,6,3,3,4,4,2,2,3,2,4,4,4,3,2,4,2,4,1,4,2,3,3,3,3,0,0,1,4,3,4,1,4,2,0,0,0,3,3,3,3,2,4,4,2,0,0,0,0,2,4,3,3,3,3,3,3,4,2,3,4,4,3,4,4,4,3,3,3,4,2,0,0,0,3,3,0,7,8,3,3,3,2,4,2,4,3,4,4,5,4,3,3,0,0,0,0,2,4,1,2,4,4,4,4,4,4,3,3,3,3,3,3,2,1,0,0,0,0,0,0,0,0,0,0,0,2,4,1,1,1,0,0,0,0,2,4,5,5,5,4,5,5,2,5,7,5,5,5,4,5,4,5,4,4,8,7,0,0,1,2,2,3,4,2,1,0,0,2,4,5,3,4,8,8,4,2,3,4,5,5,4,3,4,5,8,7,5,8,7,8,9,8,10,17,-1,-1,-1,-1,-1,-1,-1,-1,-1,-1,-1,-1,-1,-1,-1,-1,-1,-1,-1,-1,-1,-1,-1,-1,-1,-1
-1,-1,-1,-1,-1,-1,-1,-1,-1,-1,-1,-1,-1,-1,-1,-1,-1,-1,-1,-1,-1,-1,-1,-1,-1,-1,-1,-1,-1,-1,-1,-1,-1,-1,-1,-1,-1,-1,11,6,5,2,4,1,0,3,3,0,0,0,0,0,0,0,0,0,0,3,3,0,0,0,0,0,0,0,3,3,4,3,4,4,5,8,9,5,5,7,7,6,6,6,7,8,8,9,10,8,7,8,6,6,7,7,7,6,7,7,6,4,6,8,11,13,11,9,9,8,10,9,9,8,10,10,9,7,7,6,6,6,6,6,6,6,6,9,9,7,7,7,5,4,5,6,6,5,6,7,5,3,6,7,6,10,7,7,7,7,6,5,3,3,1,0,3,3,0,0,0,0,0,3,3,0,0,0,0,0,0,0,0,0,0,0,0,0,0,0,0,0,0,0,0,3,3,0,0,0,0,0,1,3,4,3,2,1,1,2,3,4,2,1,4,4,1,0,2,3,1,0,0,0,0,0,0,6,7,6,6,3,4,5,6,5,4,4,2,2,4,2,0,1,1,1,1,4,2,4,2,4,2,2,4,2,4,2,4,1,0,0,3,3,4,2,2,4,1,0,0,3,3,3,3,1,2,2,1,0,0,0,0,3,3,0,0,0,0,0,0,2,4,3,4,3,3,4,4,4,3,3,4,4,1,0,0,0,3,3,1,7,7,3,1,3,3,4,3,4,5,3,4,3,1,3,3,1,2,2,1,3,3,2,4,2,1,1,2,2,1,0,0,0,0,0,0,0,0,0,0,0,0,0,0,0,0,0,0,0,3,3,2,3,3,1,0,0,0,1,3,4,6,6,5,4,2,1,5,3,5,5,4,4,4,4,5,5,2,8,7,0,0,0,0,4,4,2,1,0,0,0,1,7,6,3,4,8,8,2,3,2,4,5,4,5,4,6,7,7,8,6,7,7,8,9,9,10,5,20,-1,-1,-1,-1,-1,-1,-1,-1,-1,-1,-1,-1,-1,-1,-1,-1,-1,-1,-1,-1,-1,-1,-1,-1,-1
-1,-1,-1,-1,-1,-1,-1,-1,-1,-1,-1,-1,-1,-1,-1,-1,-1,-1,-1,-1,-1,-1,-1,-1,-1,-1,-1,-1,-1,-1,-1,-1,-1,-1,-1,-1,-1,-1,8,8,2,3,3,0,1,4,2,0,0,0,0,0,0,0,0,0,0,3,3,0,0,0,0,0,0,0,2,3,3,3,3,6,7,6,6,4,5,6,6,5,6,8,7,7,7,9,9,6,5,6,7,6,6,6,8,8,8,7,7,8,10,10,10,10,8,7,6,4,6,6,6,7,7,8,7,7,6,6,6,6,6,6,6,6,6,9,9,6,7,8,8,5,5,8,9,5,5,7,6,4,6,6,7,8,9,6,7,6,6,5,2,4,2,0,3,3,0,0,0,0,0,3,3,0,0,0,0,0,0,0,0,0,0,0,0,1,2,3,3,3,3,3,3,4,2,0,0,0,1,2,4,3,1,0,0,0,0,0,0,3,3,1,2,2,1,1,3,3,1,0,0,0,0,0,0,5,4,6,5,4,3,6,6,4,3,2,4,2,3,3,1,1,1,0,0,2,4,3,3,2,4,1,4,2,4,2,3,3,1,0,3,3,3,3,1,3,3,1,0,3,3,2,4,1,0,0,0,0,0,1,2,4,2,0,0,0,0,0,0,1,4,4,4,3,3,4,4,4,3,4,4,3,0,0,1,1,2,4,3,4,6,3,0,1,4,5,5,6,7,5,3,2,1,3,3,2,4,4,4,4,2,4,2,0,0,0,0,0,0,0,0,0,0,0,0,0,0,0,0,0,0,0,0,0,0,0,0,0,3,3,3,3,4,2,0,0,0,0,1,4,5,5,5,2,1,0,2,4,2,2,4,2,3,3,3,4,6,8,6,0,1,2,2,6,8,4,2,0,0,0,0,7,7,3,6,8,7,2,4,1,4,4,2,5,5,5,8,7,6,7,7,8,8,9,9,11,14,11,-1,-1,-1,-1,-1,-1,-1,-1,-1,-1,-1,-1,-1,-1,-1,-1,-1,-1,-1,-1,-1,-1,-1,-1,-1
-1,-1,-1,-1,-1,-1,-1,-1,-1,-1,-1,-1,-1,-1,-1,-1,-1,-1,-1,-1,-1,-1,-1,-1,-1,-1,-1,-1,-1,-1,-1,-1,-1,-1,-1,-1,-1,-1,10,6,1,3,3,0,2,4,1,1,1,0,0,0,0,0,0,0,0,3,3,0,0,0,0,0,0,0,1,1,1,5,4,5,6,6,6,6,6,7,7,5,6,8,10,6,9,8,9,5,5,7,7,7,4,6,7,8,10,6,8,8,7,9,8,6,3,3,3,3,6,5,4,5,6,6,6,6,6,7,6,6,6,6,6,5,6,9,9,5,6,9,8,5,5,8,8,7,7,6,6,4,4,4,6,9,9,5,6,7,7,6,4,3,3,0,3,3,0,0,0,0,0,3,3,0,0,0,0,0,0,0,0,0,0,0,0,2,4,3,3,3,3,3,3,2,1,0,0,1,3,4,2,1,0,0,0,0,0,0,0,3,3,0,0,0,1,3,3,1,0,0,0,0,0,0,0,3,4,4,3,2,4,4,4,4,3,3,2,4,3,3,2,4,3,2,2,1,4,3,4,1,3,3,2,4,2,4,1,3,3,1,3,3,3,3,0,1,3,3,1,3,3,1,3,4,3,2,1,0,1,3,4,2,1,0,0,0,0,0,0,0,3,4,4,3,4,4,4,4,4,4,4,2,0,1,3,3,3,3,5,6,5,2,0,2,5,6,6,5,6,5,3,2,1,3,3,3,3,1,2,2,2,4,1,0,0,0,0,0,0,0,0,0,0,0,0,0,0,0,0,0,0,0,0,0,0,0,0,0,3,3,3,3,4,2,0,0,0,0,1,1,2,2,1,1,2,3,3,1,2,1,3,4,3,4,4,6,3,6,5,1,3,4,4,5,6,4,2,0,0,0,0,7,7,3,7,8,6,3,4,2,3,4,2,4,3,3,8,8,4,6,8,9,8,12,9,13,18,12,-1,-1,-1,-1,-1,-1,-1,-1,-1,-1,-1,-1,-1,-1,-1,-1,-1,-1,-1,-1,-1,-1,-1,-1,-1
-1,-1,-1,-1,-1,-1,-1,-1,-1,-1,-1,-1,-1,-1,-1,-1,-1,-1,-1,-1,-1,-1,-1,-1,-1,-1,-1,-1,-1,-1,-1,-1,-1,-1,-1,-1,-1,-1,11,6,1,4,2,0,2,4,2,2,1,0,0,0,0,0,0,0,0,3,3,0,0,0,0,0,0,0,0,0,2,5,5,5,6,9,8,6,5,6,6,5,8,12,10,7,8,8,6,4,5,6,7,6,4,7,5,9,9,9,7,8,8,7,6,5,2,0,0,0,2,4,3,4,5,6,7,5,6,8,9,6,6,4,4,4,5,9,8,6,5,6,6,5,4,5,7,10,8,7,7,6,5,6,6,9,7,6,7,7,7,6,3,5,5,0,3,3,0,0,0,0,0,3,3,0,0,0,0,0,0,0,0,0,0,0,0,3,3,0,0,0,0,0,0,0,0,0,0,2,4,1,0,0,0,0,0,0,0,0,0,3,3,0,0,0,1,3,2,0,0,0,0,0,0,0,0,3,4,4,3,0,3,4,4,3,4,4,4,4,3,4,2,2,2,4,4,3,2,4,3,3,1,4,2,4,2,4,2,1,4,2,2,4,3,3,0,0,1,4,2,4,2,0,1,2,3,4,3,1,2,4,1,0,0,0,0,0,0,0,0,0,3,4,4,4,4,3,4,4,4,4,4,1,0,2,4,2,3,4,5,5,5,2,2,3,3,5,6,6,7,6,4,2,0,3,3,4,2,0,0,0,2,4,1,0,0,0,0,0,0,0,0,0,0,0,0,0,0,0,0,0,0,0,0,0,0,0,0,0,3,3,2,3,3,1,0,0,0,1,3,3,2,0,0,2,4,4,4,4,2,1,2,4,4,4,3,3,6,5,2,2,4,2,2,1,2,2,1,0,0,0,1,7,6,3,8,8,4,3,3,3,3,4,2,4,3,3,8,8,4,6,9,9,8,9,9,14,17,14,-1,-1,-1,-1,-1,-1,-1,-1,-1,-1,-1,-1,-1,-1,-1,-1,-1,-1,-1,-1,-1,-1,-1,-1,-1
-1,-1,-1,-1,-1,-1,-1,-1,-1,-1,-1,-1,-1,-1,-1,-1,-1,-1,-1,-1,-1,-1,-1,-1,-1,-1,-1,-1,-1,-1,-1,-1,-1,-1,-1,-1,-1,-1,9,5,2,3,2,3,2,4,2,1,1,0,0,0,0,0,0,0,0,3,3,0,0,0,0,0,0,0,0,0,3,4,3,7,9,8,9,5,5,7,7,7,7,10,12,8,7,7,7,5,6,7,6,5,6,6,6,8,9,8,10,8,7,5,4,3,3,1,2,2,1,3,4,4,6,7,7,6,5,9,8,9,8,4,3,4,3,5,7,7,6,8,7,3,4,6,5,9,8,7,6,5,4,5,7,7,10,6,5,8,7,4,2,7,6,0,3,3,0,0,0,0,0,3,3,0,0,0,0,0,0,0,0,0,0,0,0,3,3,0,0,0,0,0,0,0,0,0,1,4,2,0,0,0,0,0,0,0,0,0,0,3,3,0,1,1,1,3,3,1,0,0,0,0,0,0,0,3,4,4,3,0,3,3,4,3,3,5,4,5,5,4,2,2,2,1,1,4,2,4,2,4,2,3,3,3,3,2,4,1,2,4,1,4,3,4,1,0,0,3,4,4,1,0,0,0,0,1,4,2,3,3,0,0,0,0,0,0,0,0,0,0,3,4,4,4,3,3,4,4,4,4,3,1,1,3,3,1,1,2,2,5,4,4,4,4,3,3,4,4,6,4,4,3,0,3,4,4,1,0,0,0,1,4,2,0,0,0,0,0,0,0,0,0,0,0,0,0,0,0,0,0,0,0,0,0,0,0,0,0,2,4,1,1,1,0,0,0,0,2,4,3,4,1,1,5,5,5,4,6,4,4,4,4,4,4,4,6,6,4,1,3,4,4,4,3,4,4,2,1,0,0,2,4,5,4,8,8,4,3,3,3,3,4,2,4,5,5,8,7,6,7,8,9,9,11,10,10,17,16,-1,-1,-1,-1,-1,-1,-1,-1,-1,-1,-1,-1,-1,-1,-1,-1,-1,-1,-1,-1,-1,-1,-1,-1,-1
-1,-1,-1,-1,-1,-1,-1,-1,-1,-1,-1,-1,-1,-1,-1,-1,-1,-1,-1,-1,-1,-1,-1,-1,-1,-1,-1,-1,-1,-1,-1,-1,-1,-1,-1,-1,-1,-1,18,16,7,2,4,2,4,4,3,0,0,0,0,0,0,0,0,0,1,4,2,0,0,0,0,0,0,0,0,0,3,4,3,10,10,6,6,4,5,8,9,7,7,10,8,7,6,6,7,6,6,7,8,6,6,6,7,8,9,7,5,3,3,2,1,4,2,1,4,4,1,2,2,2,6,8,5,5,5,6,7,10,13,9,8,4,5,5,6,7,7,7,10,7,2,6,4,8,8,7,7,5,5,7,7,10,7,8,7,7,8,6,4,6,6,2,3,3,0,0,1,1,1,2,4,2,1,0,0,0,0,0,0,0,0,0,1,4,2,0,0,0,0,0,0,1,2,3,4,3,1,0,0,0,0,0,0,0,0,0,0,2,4,3,4,3,2,1,3,3,1,0,0,0,0,0,1,3,6,7,7,4,2,4,2,3,2,3,6,7,6,5,2,2,3,3,3,4,2,2,4,2,4,3,6,3,6,3,4,5,2,3,3,3,3,4,2,0,0,3,4,4,3,3,3,2,1,1,4,2,4,2,0,1,2,3,3,3,2,1,1,1,3,4,4,5,5,4,6,5,4,4,4,4,6,5,3,2,1,1,3,4,5,3,4,4,3,3,4,4,4,4,5,5,1,4,4,3,1,2,2,1,0,2,4,3,2,1,0,1,2,3,2,1,0,0,0,0,1,2,2,1,1,2,2,1,0,0,0,0,1,3,4,3,3,2,1,0,0,3,3,2,3,1,2,5,6,6,5,7,8,2,2,4,2,2,2,5,1,1,2,4,3,4,3,7,5,2,4,4,2,2,6,5,3,4,9,7,4,3,4,2,3,4,4,6,5,7,7,6,6,8,9,11,10,12,11,14,10,15,-1,-1,-1,-1,-1,-1,-1,-1,-1,-1,-1,-1,-1,-1,-1,-1,-1,-1,-1,-1,-1,-1,-1,-1,-1
-1,-1,-1,-1,-1,-1,-1,-1,-1,-1,-1,-1,-1,-1,-1,-1,-1,-1,-1,-1,-1,-1,-1,-1,-1,-1,-1,-1,-1,-1,-1,-1,-1,-1,-1,-1,-1,-1,32,3,4,1,2,3,2,4,2,0,0,0,0,0,0,0,0,1,3,3,1,0,0,0,0,1,1,1,0,0,3,4,5,8,7,4,4,6,7,8,10,8,6,7,8,6,3,6,7,10,7,10,7,6,6,7,7,8,9,7,1,0,0,1,3,3,1,1,2,2,1,2,4,3,3,6,5,4,6,6,6,10,12,10,10,9,9,8,9,8,8,8,10,8,5,6,6,7,8,6,6,5,4,7,8,6,6,7,8,6,6,7,7,5,4,4,3,4,1,0,1,2,1,1,2,4,2,0,0,0,0,0,0,0,0,1,3,3,1,0,0,0,0,0,0,2,4,3,2,1,0,0,0,0,0,0,0,0,0,0,0,2,2,2,2,4,2,0,1,4,2,0,0,0,0,0,1,4,6,4,7,4,3,4,2,1,2,3,4,7,7,6,3,2,2,3,3,2,2,3,3,2,2,6,3,6,3,3,5,4,4,2,4,4,3,3,3,0,0,3,3,2,3,3,3,4,2,2,4,2,4,1,0,2,4,3,3,3,4,2,1,2,1,5,5,5,5,7,8,5,3,3,2,5,4,4,1,1,1,2,4,1,2,3,2,3,3,4,4,4,4,3,5,5,3,4,3,3,1,4,4,2,1,1,2,3,4,2,0,2,4,3,4,2,0,0,0,0,1,3,4,2,2,4,3,1,0,0,1,2,2,1,2,3,3,4,3,1,0,2,4,5,4,1,2,4,4,4,5,8,6,0,1,2,3,3,3,2,1,1,3,3,1,2,3,4,5,0,1,2,4,4,8,4,4,5,7,8,4,1,3,2,3,6,4,5,1,3,6,4,4,9,11,12,13,10,8,12,3,11,15,-1,-1,-1,-1,-1,-1,-1,-1,-1,-1,-1,-1,-1,-1,-1,-1,-1,-1,-1,-1,-1,-1,-1,-1
-1,-1,-1,-1,-1,-1,-1,-1,-1,-1,-1,-1,-1,-1,-1,-1,-1,-1,-1,-1,-1,-1,-1,-1,-1,-1,-1,-1,-1,-1,-1,-1,-1,-1,-1,-1,-1,-1,26,9,4,0,0,0,2,4,1,0,0,0,0,0,0,0,0,2,4,1,0,0,0,1,2,4,3,2,0,0,3,4,8,8,4,4,6,7,7,8,8,6,7,7,6,6,5,6,6,9,9,9,9,6,6,7,7,7,6,4,1,1,2,4,3,2,1,0,0,0,1,4,2,0,2,4,3,4,5,6,6,8,9,9,9,9,9,9,9,11,9,7,9,10,8,6,6,7,10,6,6,6,6,8,8,4,5,6,7,6,6,7,6,3,4,4,5,4,2,0,1,1,1,0,0,3,3,0,0,0,0,0,0,0,1,3,3,1,0,0,0,0,0,0,0,3,3,0,0,0,0,0,0,1,2,3,3,3,3,3,3,4,4,3,3,2,1,0,0,2,4,3,3,2,1,0,1,1,2,4,3,3,4,3,4,2,3,3,5,6,6,4,3,3,2,3,3,4,4,3,2,1,1,4,2,3,3,0,1,5,6,2,3,4,3,3,3,0,0,2,4,1,0,1,2,4,2,3,3,4,2,0,0,2,4,1,0,0,2,4,1,2,3,5,5,4,4,7,8,5,2,4,1,0,0,0,0,0,0,3,3,0,0,0,0,2,3,3,5,5,4,3,4,4,4,4,2,4,1,2,2,2,3,3,1,0,2,4,1,2,4,3,4,2,0,0,0,0,1,4,2,3,3,2,4,1,0,1,3,4,4,3,1,0,0,1,3,3,1,1,2,3,5,3,1,3,4,4,4,4,5,0,0,0,0,0,0,0,0,1,3,3,1,0,0,3,3,0,0,1,4,6,4,3,4,8,7,5,4,3,4,2,5,4,3,3,4,4,4,6,5,7,10,12,11,10,7,9,15,9,5,-1,-1,-1,-1,-1,-1,-1,-1,-1,-1,-1,-1,-1,-1,-1,-1,-1,-1,-1,-1,-1,-1,-1,-1
-1,-1,-1,-1,-1,-1,-1,-1,-1,-1,-1,-1,-1,-1,-1,-1,-1,-1,-1,-1,-1,-1,-1,-1,-1,-1,-1,-1,-1,-1,-1,-1,-1,-1,-1,-1,-1,-1,12,15,4,0,0,1,4,2,0,0,0,0,0,0,0,1,2,4,2,0,0,1,2,4,4,2,3,4,1,0,3,6,8,7,4,6,7,7,6,8,8,7,8,7,8,6,6,6,6,7,10,7,10,6,6,6,6,5,2,3,4,4,4,2,3,4,2,3,2,1,1,3,2,1,2,4,2,2,5,7,6,6,6,6,6,6,6,6,6,9,7,9,9,9,8,5,6,9,9,7,6,6,8,8,8,5,5,8,7,4,6,7,7,5,2,6,4,4,3,0,0,0,0,0,1,4,2,0,0,0,0,0,0,1,3,3,1,0,0,0,0,0,0,0,0,3,3,0,0,0,0,0,0,2,4,3,3,3,3,3,3,2,2,2,1,0,0,0,0,1,2,3,3,4,4,2,1,0,1,4,3,4,2,4,2,4,2,3,4,6,6,5,3,3,4,3,3,2,1,0,0,0,2,4,1,2,4,1,0,5,4,2,3,4,4,3,3,0,0,1,3,3,1,2,4,2,1,4,3,4,1,0,0,1,3,3,1,0,1,3,4,4,3,4,4,4,5,6,6,5,2,3,3,1,0,0,0,0,0,2,4,1,0,0,0,1,3,4,4,5,4,3,4,3,3,4,2,4,2,0,0,3,3,4,2,0,1,4,2,1,2,3,2,1,0,0,0,0,0,3,2,3,3,2,3,0,0,2,4,1,1,3,4,2,1,0,1,4,2,0,0,3,3,4,2,1,2,2,2,4,2,0,0,0,0,0,0,0,0,0,1,4,2,0,0,2,4,2,1,2,4,5,5,6,5,9,9,6,6,4,4,2,4,5,3,3,4,4,4,7,8,6,7,10,11,12,6,11,9,15,21,-1,-1,-1,-1,-1,-1,-1,-1,-1,-1,-1,-1,-1,-1,-1,-1,-1,-1,-1,-1,-1,-1,-1,-1
-1,-1,-1,-1,-1,-1,-1,-1,-1,-1,-1,-1,-1,-1,-1,-1,-1,-1,-1,-1,-1,-1,-1,-1,-1,-1,-1,-1,-1,-1,-1,-1,-1,-1,-1,-1,-1,-1,17,14,2,0,1,3,3,1,0,0,0,0,0,1,2,4,4,2,1,0,0,2,4,2,1,0,1,4,2,0,3,7,8,6,4,7,8,6,6,8,7,8,8,8,8,4,4,4,4,8,8,8,8,4,4,7,8,5,1,1,2,2,1,3,3,6,8,3,4,4,2,3,3,3,4,3,4,1,1,6,7,6,6,4,4,4,5,6,6,4,5,5,7,8,7,6,5,10,7,7,7,6,7,9,7,6,3,7,8,6,6,5,6,6,5,4,4,4,2,0,1,1,1,3,4,3,1,0,0,0,0,0,0,2,4,1,0,0,0,0,0,0,1,2,3,4,2,0,0,0,0,0,0,3,3,0,0,0,0,0,0,1,4,4,1,0,0,0,0,0,0,0,0,1,2,4,4,2,1,2,4,3,3,3,4,3,6,2,5,5,6,6,5,3,1,0,0,0,0,0,0,0,3,3,0,1,3,3,1,3,4,4,2,4,4,3,4,2,2,2,2,3,3,2,4,1,1,3,3,4,1,0,0,0,1,3,3,1,0,1,2,2,3,4,4,4,5,7,7,6,5,1,4,2,0,0,0,0,0,1,4,2,0,0,1,3,4,2,4,3,4,2,4,2,4,2,4,2,4,3,3,4,2,2,4,1,0,2,4,1,0,0,0,0,0,0,0,1,1,2,4,2,2,4,2,1,1,3,3,0,0,1,2,4,4,3,3,4,2,0,0,3,3,3,3,0,1,3,4,2,1,0,0,0,0,0,0,0,0,0,0,2,4,1,0,1,2,4,4,4,3,5,5,8,8,8,9,6,5,4,4,4,3,5,5,3,2,2,5,8,9,4,8,9,11,12,6,5,6,15,11,-1,-1,-1,-1,-1,-1,-1,-1,-1,-1,-1,-1,-1,-1,-1,-1,-1,-1,-1,-1,-1,-1,-1,-1
-1,-1,-1,-1,-1,-1,-1,-1,-1,-1,-1,-1,-1,-1,-1,-1,-1,-1,-1,-1,-1,-1,-1,-1,-1,-1,-1,-1,-1,-1,-1,-1,-1,-1,-1,-1,-1,-1,20,10,2,1,3,3,1,0,0,0,0,0,0,2,4,2,1,0,0,0,0,2,4,2,1,0,0,2,4,2,3,8,8,4,4,8,8,6,7,7,6,7,8,8,8,4,4,6,6,8,7,8,8,4,4,8,8,3,0,0,0,0,1,3,3,8,6,0,1,2,4,4,4,5,2,4,3,4,2,5,6,6,8,8,8,6,5,7,10,7,4,7,10,8,7,6,3,7,10,6,7,6,9,10,9,8,5,6,6,6,7,7,6,7,8,5,3,4,1,0,2,5,6,3,2,1,0,0,0,0,0,0,1,4,2,0,0,0,0,0,0,1,3,4,3,2,1,0,0,0,0,0,0,3,3,0,0,0,0,0,0,1,2,2,1,0,0,0,0,0,0,0,0,0,0,1,3,3,1,1,3,3,3,3,2,6,3,4,4,5,4,6,6,5,5,3,3,3,2,1,0,1,4,2,0,0,1,3,4,3,5,3,3,3,4,5,2,4,3,4,4,4,4,4,4,2,1,4,2,4,2,0,0,0,0,1,4,2,0,0,0,0,3,4,4,3,4,6,6,6,4,3,3,3,0,0,0,0,0,0,2,4,1,1,3,3,2,4,3,3,3,1,3,3,3,3,3,3,2,3,3,2,1,1,4,2,0,1,3,3,1,0,0,0,0,0,0,2,4,2,1,1,1,1,2,4,2,2,4,1,0,0,0,1,2,3,3,2,1,0,0,3,3,3,3,0,2,4,1,0,0,0,0,0,0,0,0,0,0,0,0,1,3,4,2,1,0,1,2,3,6,6,5,9,9,5,6,4,4,4,4,5,5,3,1,1,2,2,5,12,10,6,9,11,12,9,6,7,7,13,13,-1,-1,-1,-1,-1,-1,-1,-1,-1,-1,-1,-1,-1,-1,-1,-1,-1,-1,-1,-1,-1,-1,-1,-1
-1,-1,-1,-1,-1,-1,-1,-1,-1,-1,-1,-1,-1,-1,-1,-1,-1,-1,-1,-1,-1,-1,-1,-1,-1,-1,-1,-1,-1,-1,-1,-1,-1,-1,-1,-1,-1,-1,8,15,2,2,4,1,0,0,0,0,0,0,1,4,2,0,0,0,0,0,0,1,2,4,4,2,1,1,2,4,4,8,8,4,4,8,9,8,6,6,4,7,8,9,8,4,4,7,8,6,6,8,7,4,6,8,7,3,0,1,2,2,1,2,4,5,4,1,2,3,3,4,6,6,3,4,4,2,4,4,4,3,7,10,7,5,6,8,8,8,5,6,8,9,7,7,5,8,8,6,6,6,9,10,10,9,6,8,9,6,6,7,7,10,11,5,5,5,1,0,2,6,6,0,0,0,0,0,0,0,0,1,3,3,1,0,0,0,0,0,0,2,4,1,0,0,0,0,0,0,0,0,0,3,3,0,0,0,0,0,0,0,0,0,0,0,0,0,1,1,1,0,0,0,1,2,4,3,2,1,1,4,2,3,4,3,6,2,5,4,3,4,4,5,5,4,3,3,4,4,3,4,3,1,0,0,0,1,2,6,4,4,4,4,4,4,5,3,4,3,3,3,6,5,3,4,2,2,4,2,4,3,3,2,1,1,4,2,0,0,0,0,2,4,4,2,5,7,7,6,5,4,3,4,1,0,0,0,0,0,1,4,2,2,4,2,4,2,1,2,4,2,1,4,2,3,3,3,3,1,0,0,0,0,2,4,1,0,1,4,2,0,0,0,1,2,3,4,2,3,0,0,0,0,3,2,4,2,3,3,1,0,0,0,0,0,0,0,0,0,0,2,4,4,2,0,2,4,1,0,0,0,0,0,0,0,0,0,0,0,0,0,1,2,4,2,1,2,3,4,5,6,6,9,8,4,4,3,1,3,3,5,4,3,1,1,4,5,6,12,10,7,9,11,11,9,4,5,20,16,9,-1,-1,-1,-1,-1,-1,-1,-1,-1,-1,-1,-1,-1,-1,-1,-1,-1,-1,-1,-1,-1,-1,-1,-1
-1,-1,-1,-1,-1,-1,-1,-1,-1,-1,-1,-1,-1,-1,-1,-1,-1,-1,-1,-1,-1,-1,-1,-1,-1,-1,-1,-1,-1,-1,-1,-1,-1,-1,-1,-1,-1,-1,4,4,2,3,3,1,2,2,1,0,0,0,2,4,1,0,1,1,1,1,0,0,0,1,2,4,2,0,0,3,4,8,9,7,3,8,9,8,4,4,4,7,8,8,8,6,6,8,7,7,8,6,6,6,7,7,5,4,1,3,4,4,2,2,4,2,1,2,4,3,3,3,5,5,4,5,4,5,3,6,6,3,3,6,6,5,4,4,4,4,5,6,9,8,7,6,4,6,6,6,6,6,9,8,9,9,6,9,9,6,6,7,8,10,10,8,8,6,4,1,1,4,5,0,0,0,0,0,0,0,1,3,3,1,0,0,0,0,0,0,0,3,3,0,0,0,0,0,0,0,0,0,0,3,3,0,0,0,0,0,0,0,0,1,2,3,3,3,4,3,2,0,0,1,3,4,2,2,3,3,1,2,4,1,2,6,3,4,3,4,4,2,3,3,2,4,4,3,2,2,3,2,1,0,0,0,0,0,0,2,4,2,6,4,3,5,3,3,3,3,3,4,4,6,5,2,4,3,4,2,2,3,3,4,2,2,4,1,0,0,1,1,1,4,3,4,3,6,6,8,6,3,3,4,2,0,0,0,0,0,0,3,3,3,3,3,3,0,0,1,2,4,4,3,5,1,4,2,3,4,3,2,1,0,1,4,2,0,0,3,3,0,0,0,2,4,3,2,3,3,0,0,0,0,3,3,2,4,2,4,2,0,0,0,0,0,1,2,3,3,3,2,2,2,1,0,1,4,2,0,0,0,0,0,0,0,0,0,0,0,0,0,0,0,1,6,5,3,3,2,5,7,6,8,8,2,2,4,3,4,2,3,3,3,2,2,6,9,9,12,7,10,11,11,9,7,4,9,13,6,14,-1,-1,-1,-1,-1,-1,-1,-1,-1,-1,-1,-1,-1,-1,-1,-1,-1,-1,-1,-1,-1,-1,-1,-1
-1,-1,-1,-1,-1,-1,-1,-1,-1,-1,-1,-1,-1,-1,-1,-1,-1,-1,-1,-1,-1,-1,-1,-1,-1,-1,-1,-1,-1,-1,-1,-1,-1,-1,-1,-1,-1,-1,7,4,6,4,2,1,4,4,1,0,0,0,2,4,1,0,1,4,4,1,0,0,0,0,0,3,3,0,1,5,6,8,8,7,4,8,8,8,6,6,6,7,7,8,9,8,7,6,6,9,8,7,8,6,6,6,6,5,4,3,2,4,2,4,2,0,1,4,2,2,2,1,2,1,3,3,5,3,5,7,11,11,10,11,10,8,6,6,5,3,7,10,9,8,8,5,4,7,6,6,4,4,6,6,9,7,6,9,8,6,6,8,9,5,8,10,7,6,4,3,1,4,2,0,0,0,0,0,0,1,3,3,1,0,0,0,0,1,2,3,3,4,2,0,0,0,0,0,0,0,1,2,3,4,2,0,0,1,2,3,3,3,3,3,5,2,2,3,2,3,4,3,3,4,3,1,0,2,4,3,1,1,3,3,1,3,3,2,4,4,6,8,6,5,5,2,2,3,4,4,2,1,0,0,1,2,2,1,0,1,3,3,2,4,3,4,6,3,3,2,1,1,5,6,6,4,2,3,3,4,1,1,2,4,2,3,3,0,0,0,1,2,1,3,3,4,6,6,5,7,8,3,5,3,3,1,2,2,1,0,0,3,3,3,3,1,6,6,4,1,2,2,2,6,5,2,2,4,1,2,3,3,1,0,0,3,3,0,0,1,5,4,1,0,2,4,2,2,4,2,0,0,0,0,2,4,1,3,3,3,3,0,1,1,1,0,1,4,2,2,2,4,1,0,0,0,1,4,2,0,0,0,0,0,0,0,0,0,0,0,0,1,2,3,3,6,6,1,2,5,7,7,6,6,5,0,1,2,3,2,1,3,6,4,4,5,6,8,9,8,7,9,10,10,9,6,4,12,14,4,8,-1,-1,-1,-1,-1,-1,-1,-1,-1,-1,-1,-1,-1,-1,-1,-1,-1,-1,-1,-1,-1,-1,-1,-1
-1,-1,-1,-1,-1,-1,-1,-1,-1,-1,-1,-1,-1,-1,-1,-1,-1,-1,-1,-1,-1,-1,-1,-1,-1,-1,-1,-1,-1,-1,-1,-1,-1,-1,-1,-1,-1,-1,6,7,4,2,3,2,2,2,1,0,0,0,1,4,2,0,1,1,1,1,0,0,0,0,0,3,3,0,2,5,6,6,5,4,6,8,7,6,8,7,5,7,7,9,8,7,7,6,4,10,11,7,8,7,8,6,5,3,5,1,3,3,2,4,1,0,2,4,2,4,4,2,2,4,2,4,4,3,1,7,7,10,13,13,11,10,9,8,10,9,6,11,10,8,10,9,7,9,6,7,8,3,5,6,6,7,7,6,6,5,7,9,8,5,5,8,7,4,4,4,3,4,1,0,0,0,0,0,0,2,4,1,0,0,0,0,0,2,4,3,3,2,1,0,0,0,0,0,0,1,3,4,3,2,1,0,0,2,4,3,3,3,3,5,4,3,4,2,0,1,2,3,3,2,1,0,0,1,2,2,1,0,1,4,2,2,4,2,2,5,5,6,7,7,4,4,4,2,1,2,4,3,1,0,2,4,4,2,0,0,1,4,2,4,2,5,3,3,3,4,2,1,4,6,6,5,3,3,2,4,2,2,4,2,1,3,3,0,0,0,1,1,1,2,4,3,5,8,6,3,4,6,5,3,4,2,4,4,1,0,0,2,4,3,3,1,6,6,5,3,3,3,4,4,3,4,1,3,3,1,1,3,3,1,0,2,4,1,0,1,6,4,3,1,1,3,3,0,3,3,1,0,0,0,1,3,4,4,2,4,2,0,1,2,1,0,1,2,3,3,3,2,1,0,0,0,2,4,1,1,2,3,2,1,0,0,0,0,0,0,0,1,3,3,3,3,2,5,5,6,7,6,5,4,3,0,0,0,0,0,1,4,6,7,7,6,5,6,6,4,6,8,9,8,7,6,6,12,8,3,5,8,-1,-1,-1,-1,-1,-1,-1,-1,-1,-1,-1,-1,-1,-1,-1,-1,-1,-1,-1,-1,-1,-1,-1
-1,-1,-1,-1,-1,-1,-1,-1,-1,-1,-1,-1,-1,-1,-1,-1,-1,-1,-1,-1,-1,-1,-1,-1,-1,-1,-1,-1,-1,-1,-1,-1,-1,-1,-1,-1,-1,-1,3,9,5,3,3,4,4,3,3,2,1,0,0,3,3,0,0,0,0,0,0,0,0,0,0,3,3,0,3,4,4,4,4,4,5,8,7,4,7,8,5,4,8,9,8,6,8,7,4,12,11,7,8,8,8,4,3,3,3,1,4,2,2,4,1,0,3,3,3,3,3,3,3,2,3,3,4,3,0,3,3,0,3,4,7,9,10,10,12,9,9,9,10,10,10,12,9,9,8,9,11,8,5,7,7,7,7,6,7,9,7,9,7,8,9,7,9,5,4,4,4,3,0,0,0,0,0,0,0,3,3,0,0,0,0,0,0,3,3,0,0,0,0,0,0,0,0,0,0,2,4,1,0,0,0,0,0,3,3,0,0,0,0,1,4,2,3,3,0,0,0,0,0,0,1,2,3,3,3,3,3,2,1,3,3,1,2,4,4,2,3,3,1,6,7,2,2,4,4,2,1,4,2,0,3,3,3,3,0,0,0,3,3,3,3,2,4,1,1,4,2,1,1,3,4,4,3,4,2,3,3,3,3,0,1,4,2,0,0,0,0,0,0,1,4,4,6,6,4,3,3,4,6,5,3,3,2,2,1,0,0,1,4,3,4,2,3,3,2,4,3,3,2,2,1,3,3,1,4,2,1,2,4,3,1,1,3,3,1,3,2,3,3,4,3,5,4,3,2,4,3,1,0,0,0,1,2,2,3,3,1,0,1,1,1,0,0,0,0,0,0,0,0,0,0,0,3,3,0,2,4,3,4,3,1,0,0,0,0,0,0,1,4,2,0,4,5,6,6,6,6,6,5,3,3,3,2,1,0,0,1,1,3,8,8,5,6,6,4,4,7,10,10,7,6,9,8,8,8,6,5,6,-1,-1,-1,-1,-1,-1,-1,-1,-1,-1,-1,-1,-1,-1,-1,-1,-1,-1,-1,-1,-1,-1,-1
-1,-1,-1,-1,-1,-1,-1,-1,-1,-1,-1,-1,-1,-1,-1,-1,-1,-1,-1,-1,-1,-1,-1,-1,-1,-1,-1,-1,-1,-1,-1,-1,-1,-1,-1,-1,-1,-1,18,18,2,0,0,1,2,3,3,4,2,0,1,4,2,0,0,0,0,0,0,0,0,0,0,2,4,1,3,4,5,6,5,7,7,8,8,4,6,8,7,4,8,9,8,6,7,8,6,10,11,7,8,8,8,4,3,3,3,0,3,3,1,4,2,1,4,2,2,4,4,2,2,4,2,3,4,3,0,3,3,0,3,3,4,5,8,12,13,11,9,10,10,10,12,10,10,9,9,9,9,8,7,8,9,7,6,6,8,7,9,8,7,8,9,10,9,5,4,4,4,3,0,0,0,0,0,0,0,3,3,0,0,0,0,0,1,4,2,0,0,0,0,0,0,0,0,0,1,4,2,0,0,0,0,0,0,2,4,1,0,0,0,0,3,3,3,3,0,0,0,1,2,3,4,4,3,3,3,3,3,4,3,2,4,2,2,2,2,4,2,3,4,5,5,4,3,1,2,4,2,2,4,1,2,4,4,2,0,0,0,2,4,2,4,2,3,3,2,4,1,1,2,4,4,4,3,3,3,3,3,3,3,0,2,4,1,0,0,0,0,0,0,0,3,4,5,6,6,4,4,5,6,5,2,4,2,0,0,0,0,0,2,4,3,3,1,1,2,4,4,4,2,0,0,2,3,1,3,3,0,0,1,4,2,0,1,4,2,3,2,3,1,2,3,4,5,5,5,2,4,2,1,2,3,2,1,2,4,1,0,0,0,1,2,3,2,1,0,0,0,0,0,0,0,0,3,3,0,3,3,1,3,3,1,0,0,0,0,0,0,0,3,3,0,6,8,5,6,6,6,5,6,3,3,3,3,1,0,1,2,3,7,12,10,7,6,4,3,5,7,9,10,9,6,8,9,6,7,6,3,6,-1,-1,-1,-1,-1,-1,-1,-1,-1,-1,-1,-1,-1,-1,-1,-1,-1,-1,-1,-1,-1,-1,-1
-1,-1,-1,-1,-1,-1,-1,-1,-1,-1,-1,-1,-1,-1,-1,-1,-1,-1,-1,-1,-1,-1,-1,-1,-1,-1,-1,-1,-1,-1,-1,-1,-1,-1,-1,-1,-1,16,28,8,2,0,0,0,1,2,3,3,3,3,4,3,1,0,0,0,0,0,0,0,0,0,0,1,4,2,3,3,5,7,6,7,8,7,8,6,4,8,8,4,7,8,7,7,6,8,7,9,8,7,8,7,8,6,5,3,3,0,3,3,0,3,3,2,4,1,1,2,2,1,1,1,1,3,4,3,0,3,3,1,4,2,1,4,8,11,13,10,9,10,10,10,9,9,10,10,9,10,9,6,6,9,9,6,6,7,7,7,6,6,7,7,9,10,9,7,7,6,6,3,0,0,0,0,0,0,0,3,3,0,0,0,1,2,4,3,1,0,0,0,0,0,0,0,1,2,4,3,1,0,0,0,0,0,0,1,3,4,3,2,1,1,4,2,4,2,0,1,2,4,4,3,2,1,2,3,3,3,3,2,3,4,4,5,4,4,3,2,4,1,2,7,7,2,3,3,1,2,4,1,3,3,1,2,2,1,0,1,1,1,3,3,2,4,4,4,4,3,3,3,3,3,3,4,3,3,3,3,3,2,4,2,2,4,1,0,0,0,0,0,0,0,2,4,5,6,3,8,6,3,4,4,3,4,2,0,1,2,3,2,1,4,2,3,4,5,5,6,6,5,5,1,0,2,4,1,3,3,0,0,1,4,2,0,1,4,2,3,2,4,3,3,4,3,2,5,3,4,4,3,2,4,3,4,2,2,4,1,0,0,0,2,4,3,4,4,2,1,0,0,0,0,0,0,3,3,0,2,4,4,4,2,1,1,2,3,3,2,1,1,4,2,2,9,7,4,6,6,5,2,4,2,4,4,3,1,1,3,4,3,8,10,12,8,5,4,3,7,9,9,10,9,6,7,6,7,7,5,6,7,-1,-1,-1,-1,-1,-1,-1,-1,-1,-1,-1,-1,-1,-1,-1,-1,-1,-1,-1,-1,-1,-1,-1
-1,-1,-1,-1,-1,-1,-1,-1,-1,-1,-1,-1,-1,-1,-1,-1,-1,-1,-1,-1,-1,-1,-1,-1,-1,-1,-1,-1,-1,-1,-1,-1,-1,-1,-1,-1,-1,38,10,8,6,0,0,0,2,4,3,3,3,3,2,1,0,0,0,0,0,0,0,0,0,0,0,0,3,3,2,4,3,6,4,7,8,6,7,7,6,7,8,6,5,7,7,6,7,8,10,7,10,6,7,7,6,6,4,3,2,1,4,2,1,4,2,3,3,0,0,0,0,0,0,0,0,3,4,3,0,3,3,1,3,2,0,0,3,6,8,8,9,11,9,9,10,9,9,11,9,9,10,8,6,9,9,6,6,8,9,7,7,7,7,6,8,10,10,9,6,7,7,5,1,0,0,0,0,0,0,3,3,0,0,1,3,4,2,1,0,0,0,0,0,0,0,1,3,4,2,1,0,0,0,0,0,0,0,0,1,2,3,4,4,4,3,3,3,1,2,4,4,2,1,2,3,4,4,3,3,3,3,4,4,3,5,5,3,2,3,3,3,4,3,4,6,4,4,4,5,2,3,4,3,4,5,3,2,2,2,3,4,1,1,4,2,1,2,8,7,5,5,2,1,1,3,4,4,3,3,3,3,1,2,4,2,4,2,0,0,0,0,0,0,0,2,3,4,4,4,7,7,3,4,4,4,3,2,1,3,4,3,4,3,2,4,2,3,4,5,5,6,6,6,4,1,2,4,1,3,3,0,0,1,3,3,1,1,3,3,3,3,2,3,3,2,1,2,4,2,3,4,4,2,4,1,3,3,1,4,2,0,0,0,5,4,1,1,2,4,3,1,0,0,0,0,0,3,3,0,1,2,2,1,1,2,4,4,3,3,4,4,4,3,4,5,7,8,5,5,4,3,1,3,3,2,2,1,1,3,3,4,10,10,11,9,6,5,2,2,12,11,9,10,9,6,6,7,6,7,7,3,6,-1,-1,-1,-1,-1,-1,-1,-1,-1,-1,-1,-1,-1,-1,-1,-1,-1,-1,-1,-1,-1,-1,-1
-1,-1,-1,-1,-1,-1,-1,-1,-1,-1,-1,-1,-1,-1,-1,-1,-1,-1,-1,-1,-1,-1,-1,-1,-1,-1,-1,-1,-1,-1,-1,-1,-1,-1,-1,-1,-1,19,9,10,6,0,0,0,2,4,3,4,2,0,0,0,0,0,0,0,0,0,0,0,0,0,0,0,3,3,1,4,4,4,4,6,6,8,7,6,7,7,6,7,7,6,6,7,7,9,7,10,7,7,7,7,7,6,6,2,1,4,3,1,3,3,1,4,2,0,0,0,0,0,0,0,0,3,4,3,0,3,3,1,4,2,2,3,4,3,5,7,6,9,10,8,8,10,9,9,9,8,10,9,6,9,10,8,7,9,10,8,8,9,7,6,6,9,10,7,7,7,6,5,2,0,0,0,0,0,0,3,3,0,0,2,4,1,0,0,0,0,0,0,0,0,0,2,4,1,0,0,0,0,0,0,0,0,0,0,0,0,0,1,2,2,3,3,1,3,4,2,2,3,4,4,3,2,1,0,0,0,0,1,3,4,4,4,4,5,5,4,5,4,4,6,6,5,4,6,5,4,4,4,4,5,4,3,4,3,4,5,5,3,3,6,3,3,3,6,6,5,5,3,2,2,2,4,4,4,3,4,2,0,0,3,3,2,4,2,1,1,2,3,3,3,4,3,3,3,4,7,7,3,4,4,4,3,4,2,5,1,0,1,3,3,2,4,3,3,1,2,5,6,5,4,5,2,3,4,3,6,3,3,2,2,4,4,3,3,4,3,2,0,0,0,0,0,1,1,1,3,3,4,2,3,4,4,2,1,4,2,0,0,0,6,6,4,2,1,1,4,2,0,0,0,0,0,3,3,0,0,0,0,0,1,3,3,1,1,2,2,2,2,3,4,6,6,5,4,5,5,3,2,1,4,2,0,1,4,5,8,9,11,12,8,7,5,1,4,5,11,11,7,8,6,6,7,6,6,7,5,4,4,-1,-1,-1,-1,-1,-1,-1,-1,-1,-1,-1,-1,-1,-1,-1,-1,-1,-1,-1,-1,-1,-1,-1
-1,-1,-1,-1,-1,-1,-1,-1,-1,-1,-1,-1,-1,-1,-1,-1,-1,-1,-1,-1,-1,-1,-1,-1,-1,-1,-1,-1,-1,-1,-1,-1,-1,-1,-1,-1,-1,23,9,19,6,3,2,1,1,2,3,2,1,0,0,0,0,0,0,0,0,0,0,0,0,0,0,0,3,3,0,3,4,4,3,7,7,8,8,4,6,8,7,6,6,7,7,6,7,8,9,7,8,6,7,7,6,6,3,6,6,2,1,3,3,1,3,3,1,0,0,0,0,0,0,0,0,3,4,3,0,3,3,1,3,6,5,3,2,1,4,5,6,8,9,7,6,9,9,9,9,7,9,8,6,8,10,8,9,9,9,7,9,9,6,6,8,9,8,7,7,7,7,6,5,0,0,0,0,0,0,3,3,0,1,4,2,0,0,0,0,0,0,0,0,0,0,3,3,0,0,0,0,0,0,0,0,0,0,0,0,0,0,0,1,3,3,1,3,3,1,3,4,3,2,1,0,0,0,1,1,1,1,3,3,4,4,4,4,5,5,6,6,4,4,5,6,6,4,5,4,5,4,4,4,3,3,3,1,1,1,1,3,4,4,5,5,4,4,3,3,4,4,3,4,4,2,4,4,4,4,4,1,0,0,2,4,1,2,4,4,4,4,3,3,3,2,1,3,3,3,6,5,4,6,5,3,3,2,8,6,0,0,0,1,4,2,1,1,1,1,3,3,4,2,5,3,4,4,3,5,5,4,3,4,4,3,3,3,4,4,3,1,0,0,0,0,1,2,2,1,3,3,3,3,1,2,2,1,3,3,2,3,3,3,8,6,2,4,2,0,3,3,0,0,0,0,0,3,3,0,0,0,0,0,1,3,4,3,2,5,4,3,3,4,5,4,4,5,5,5,4,5,4,3,2,4,3,4,4,7,8,9,8,7,5,3,3,2,5,8,7,7,8,7,8,6,6,6,6,7,7,2,3,-1,-1,-1,-1,-1,-1,-1,-1,-1,-1,-1,-1,-1,-1,-1,-1,-1,-1,-1,-1,-1,-1,-1
-1,-1,-1,-1,-1,-1,-1,-1,-1,-1,-1,-1,-1,-1,-1,-1,-1,-1,-1,-1,-1,-1,-1,-1,-1,-1,-1,-1,-1,-1,-1,-1,-1,-1,-1,-1,-1,16,17,13,4,2,4,1,0,1,2,2,1,0,0,0,0,0,0,0,0,0,0,0,0,0,0,0,2,4,2,2,5,7,7,6,8,7,10,6,6,7,8,6,6,6,6,7,7,8,8,8,6,7,7,8,9,8,5,5,8,2,3,3,1,1,3,2,2,3,2,1,0,0,0,1,2,6,5,2,2,6,3,4,6,8,4,0,0,0,1,3,5,7,8,8,9,9,12,9,10,9,9,8,6,7,9,8,6,7,7,6,9,8,9,6,7,9,10,6,8,9,8,8,8,3,2,1,0,0,0,2,4,3,3,5,3,3,2,1,0,0,0,1,2,3,3,4,2,0,0,0,0,0,1,1,1,0,0,1,2,3,3,3,4,3,1,3,3,1,1,3,2,0,0,0,0,0,0,2,3,4,4,6,7,6,6,5,4,2,2,5,5,4,4,3,4,4,4,3,4,5,4,4,2,3,4,5,7,7,7,6,3,3,4,4,4,4,3,4,3,3,4,4,2,2,4,4,6,4,5,6,2,1,0,1,4,2,0,1,2,2,1,0,0,0,0,1,4,2,2,5,5,5,6,5,2,4,2,6,8,3,2,1,0,3,3,0,0,1,3,3,3,3,1,4,2,1,2,4,3,2,4,3,2,4,4,4,4,3,4,5,5,3,2,1,1,3,4,5,2,2,4,3,3,1,2,2,2,3,4,5,2,2,2,3,5,2,4,2,0,2,4,3,3,3,2,1,2,4,1,1,1,1,0,0,1,2,3,6,7,3,3,5,4,4,5,7,6,5,5,5,1,1,3,2,3,3,2,7,11,8,5,4,3,3,4,2,5,9,9,8,11,10,11,6,4,6,6,4,7,9,8,10,-1,-1,-1,-1,-1,-1,-1,-1,-1,-1,-1,-1,-1,-1,-1,-1,-1,-1,-1,-1,-1,-1,-1
-1,-1,-1,-1,-1,-1,-1,-1,-1,-1,-1,-1,-1,-1,-1,-1,-1,-1,-1,-1,-1,-1,-1,-1,-1,-1,-1,-1,-1,-1,-1,-1,-1,-1,-1,-1,-1,8,10,1,5,3,2,1,0,2,4,4,2,0,0,0,0,0,0,0,0,0,0,0,0,0,0,0,1,3,3,1,4,10,6,6,6,10,7,6,7,7,6,8,7,4,4,6,7,7,8,8,9,6,6,8,9,7,6,4,7,6,5,2,0,1,3,3,4,3,4,4,3,3,3,4,4,3,5,2,4,3,6,5,4,4,4,0,0,0,0,1,3,4,4,8,9,12,10,9,9,9,10,9,7,7,7,6,7,7,7,7,6,9,7,8,7,8,7,6,8,9,7,9,9,4,4,4,2,2,2,2,2,3,6,3,3,3,4,3,1,0,0,2,4,3,3,2,1,0,0,0,0,1,3,3,2,0,1,3,4,3,3,3,2,1,3,3,1,1,3,3,1,0,0,0,0,0,0,2,4,2,4,5,6,6,6,6,2,1,0,1,2,4,4,4,4,3,3,3,3,2,4,4,6,3,4,6,7,8,8,7,5,4,4,3,2,1,0,1,3,4,2,2,4,2,3,7,6,4,4,4,4,2,0,1,4,2,0,0,0,0,0,0,0,0,0,2,4,1,1,5,5,4,4,4,3,2,4,5,4,3,4,2,1,4,2,0,0,2,4,2,4,1,1,3,3,3,3,2,3,3,2,3,4,3,4,3,2,3,3,6,3,3,4,2,2,4,1,4,6,3,3,4,3,1,4,4,2,2,6,3,3,3,3,3,3,4,2,1,0,1,2,3,3,3,3,1,1,4,2,1,2,1,0,0,0,0,0,3,6,5,2,4,4,5,4,6,10,4,4,2,0,0,1,5,5,1,4,8,11,10,4,1,3,4,4,3,4,7,9,7,10,11,8,7,5,7,7,8,20,7,22,13,-1,-1,-1,-1,-1,-1,-1,-1,-1,-1,-1,-1,-1,-1,-1,-1,-1,-1,-1,-1,-1,-1,-1
-1,-1,-1,-1,-1,-1,-1,-1,-1,-1,-1,-1,-1,-1,-1,-1,-1,-1,-1,-1,-1,-1,-1,-1,-1,-1,-1,-1,-1,-1,-1,-1,-1,-1,-1,-1,-1,7,6,3,0,0,0,0,0,3,3,3,3,0,0,0,0,0,0,0,0,0,0,0,0,0,0,1,1,3,4,1,0,7,8,4,4,7,8,6,6,7,7,7,8,6,6,6,6,7,7,8,8,8,9,6,6,7,6,6,5,6,5,4,3,2,1,1,1,0,1,2,3,3,3,2,1,4,2,4,2,4,2,1,3,3,1,1,2,2,1,1,4,3,4,2,5,7,10,7,9,7,9,9,8,9,7,8,8,7,7,6,7,8,10,7,10,6,7,7,6,6,6,9,7,4,3,2,4,3,4,4,2,0,3,3,0,0,1,4,2,0,0,3,3,0,0,0,0,0,0,0,1,3,3,3,3,2,4,3,1,0,0,1,2,4,3,1,1,3,4,2,1,0,0,0,0,0,0,1,2,3,3,3,3,3,3,2,1,0,0,0,0,1,2,7,7,3,4,5,4,5,3,5,8,8,7,6,4,4,4,6,8,8,6,5,3,3,3,4,4,3,3,3,2,1,3,3,5,3,3,3,4,5,1,1,3,2,0,0,0,0,0,0,0,0,0,2,4,1,0,3,4,4,4,5,5,1,3,5,5,0,3,3,3,3,1,0,0,3,3,2,4,1,1,2,4,4,4,5,5,4,5,3,1,0,1,3,3,1,0,3,3,0,3,3,2,4,1,5,4,3,3,4,2,1,2,2,1,0,3,3,1,3,3,1,1,1,0,0,0,0,0,1,2,4,3,1,0,3,3,1,1,1,1,1,1,0,0,0,3,4,4,4,3,4,5,7,6,3,3,1,0,0,0,5,4,1,8,8,8,5,1,1,3,4,4,4,5,10,7,8,7,6,6,5,6,7,8,10,17,8,27,22,-1,-1,-1,-1,-1,-1,-1,-1,-1,-1,-1,-1,-1,-1,-1,-1,-1,-1,-1,-1,-1,-1,-1
-1,-1,-1,-1,-1,-1,-1,-1,-1,-1,-1,-1,-1,-1,-1,-1,-1,-1,-1,-1,-1,-1,-1,-1,-1,-1,-1,-1,-1,-1,-1,-1,-1,-1,-1,-1,-1,7,6,3,0,0,0,0,0,3,3,2,4,1,0,0,0,0,0,0,0,0,0,0,0,0,0,2,3,3,2,0,0,6,8,6,6,6,7,7,6,6,7,7,6,6,6,6,7,7,7,7,6,9,8,6,6,6,6,6,7,7,6,2,3,4,2,0,0,0,0,0,0,1,2,3,4,3,2,4,2,4,1,3,3,1,1,3,4,4,4,2,3,3,3,2,5,9,8,9,9,7,9,8,9,9,7,10,8,7,7,9,6,8,8,10,8,7,7,7,6,8,9,6,7,4,4,2,1,1,1,3,3,0,2,4,1,0,0,3,3,0,0,3,3,0,0,0,0,0,0,1,3,3,1,2,3,4,2,1,0,0,0,2,4,2,1,1,3,3,1,0,0,0,0,0,0,0,0,1,2,3,3,3,3,3,3,2,1,0,0,0,0,0,0,4,5,4,5,5,6,6,4,6,7,8,8,7,6,4,4,6,7,8,8,6,4,4,3,2,2,1,0,0,0,1,3,2,3,3,3,3,5,4,3,1,3,4,2,1,0,0,0,0,0,0,0,1,4,2,0,3,4,4,4,5,5,2,1,7,6,0,2,3,3,1,0,0,0,2,4,1,3,3,1,2,4,3,3,5,4,6,3,4,4,3,2,1,4,2,0,2,4,1,2,4,1,3,3,2,3,3,3,3,1,0,0,0,0,0,3,3,2,4,1,0,0,0,0,0,1,2,3,4,4,2,1,0,0,3,3,0,0,1,3,3,2,0,1,2,6,6,6,4,3,5,5,7,5,3,1,1,1,1,0,2,4,3,9,9,6,4,3,2,3,6,6,4,5,7,9,6,7,7,7,6,6,6,7,9,16,6,18,-1,-1,-1,-1,-1,-1,-1,-1,-1,-1,-1,-1,-1,-1,-1,-1,-1,-1,-1,-1,-1,-1,-1,-1
-1,-1,-1,-1,-1,-1,-1,-1,-1,-1,-1,-1,-1,-1,-1,-1,-1,-1,-1,-1,-1,-1,-1,-1,-1,-1,-1,-1,-1,-1,-1,-1,-1,-1,-1,-1,-1,7,6,3,0,0,0,0,0,3,3,1,3,4,2,1,0,0,0,0,0,0,0,0,0,0,0,3,3,1,1,0,0,5,6,6,6,7,7,6,7,7,7,8,8,4,4,4,6,8,7,7,7,6,6,5,6,6,6,7,7,7,6,2,0,3,3,0,0,0,1,2,3,4,4,3,2,1,4,2,4,2,3,3,1,1,3,3,1,1,2,4,5,4,3,2,3,6,6,9,7,7,7,6,9,7,7,8,10,6,9,8,8,9,6,11,11,6,6,5,7,9,8,7,6,5,4,3,0,0,0,3,3,0,1,4,2,0,0,3,3,0,0,3,3,0,0,0,0,0,0,2,4,1,0,1,1,1,0,0,1,2,3,4,2,0,1,3,3,1,0,0,0,0,0,0,0,0,0,2,4,3,3,3,3,3,3,4,4,3,3,3,3,3,3,2,2,4,4,4,6,6,4,4,4,3,5,6,4,4,4,4,4,4,5,4,3,4,3,3,3,3,1,0,0,1,4,2,1,3,3,4,3,4,3,3,1,2,4,4,3,2,1,0,0,0,1,2,4,2,0,3,4,4,4,3,5,5,1,7,7,0,1,1,1,0,0,0,0,1,4,2,1,3,4,4,2,0,0,1,4,4,3,1,3,3,4,3,2,4,2,1,3,3,1,3,3,1,3,3,1,2,4,1,0,1,2,2,1,1,4,2,3,3,0,0,0,0,1,2,4,4,3,2,1,0,0,0,0,3,3,0,0,1,3,4,2,2,4,4,5,6,6,5,5,6,6,6,4,1,1,1,2,1,0,2,5,9,8,9,6,5,3,4,3,7,8,5,6,7,6,7,8,7,8,7,5,6,6,12,13,1,11,-1,-1,-1,-1,-1,-1,-1,-1,-1,-1,-1,-1,-1,-1,-1,-1,-1,-1,-1,-1,-1,-1,-1,-1
-1,-1,-1,-1,-1,-1,-1,-1,-1,-1,-1,-1,-1,-1,-1,-1,-1,-1,-1,-1,-1,-1,-1,-1,-1,-1,-1,-1,-1,-1,-1,-1,-1,-1,-1,-1,-1,7,6,3,0,0,0,0,0,3,3,0,1,2,4,3,1,0,0,0,0,0,0,0,0,0,0,3,3,0,0,0,0,3,4,4,4,5,7,6,6,7,7,11,12,6,6,6,6,7,10,6,7,8,9,6,5,7,6,7,7,7,9,6,2,2,4,1,1,2,4,4,3,2,2,3,3,4,3,3,3,3,3,1,2,4,3,1,0,0,1,2,5,4,3,3,3,4,4,6,7,7,7,9,6,7,7,9,9,8,9,6,9,7,7,10,10,7,7,6,6,7,7,8,9,6,6,5,0,0,0,3,3,0,0,2,4,1,0,3,3,0,0,3,3,0,0,0,0,0,1,4,2,0,0,0,0,0,1,2,4,4,3,2,1,0,2,4,1,0,0,0,0,0,0,0,0,0,0,3,3,0,0,0,0,0,0,1,2,3,3,3,3,3,3,4,4,3,3,3,5,5,4,4,4,4,3,3,4,4,4,4,4,4,4,4,5,2,3,3,3,3,3,1,0,1,4,2,0,2,3,4,3,3,3,3,4,3,2,2,3,4,4,3,3,3,4,4,2,1,0,3,3,4,3,4,5,5,2,6,8,2,1,0,0,0,0,0,0,0,2,4,2,1,2,2,1,0,0,0,3,4,4,4,3,4,2,3,3,2,4,3,1,3,3,1,4,2,1,4,2,2,4,2,2,3,4,4,4,4,3,1,3,3,0,1,2,3,4,4,2,1,0,1,2,2,1,0,0,3,3,0,0,1,2,2,3,4,3,5,6,6,6,6,5,5,6,5,1,0,1,2,1,1,1,4,6,9,9,5,3,4,1,3,5,10,7,5,7,6,6,10,7,10,8,6,5,7,7,2,8,7,10,-1,-1,-1,-1,-1,-1,-1,-1,-1,-1,-1,-1,-1,-1,-1,-1,-1,-1,-1,-1,-1,-1,-1,-1
-1,-1,-1,-1,-1,-1,-1,-1,-1,-1,-1,-1,-1,-1,-1,-1,-1,-1,-1,-1,-1,-1,-1,-1,-1,-1,-1,-1,-1,-1,-1,-1,-1,-1,-1,-1,-1,7,6,3,0,0,0,0,0,3,3,0,0,0,1,4,2,0,0,0,0,0,0,0,0,0,0,5,4,1,0,0,0,3,4,3,6,7,5,5,5,6,6,12,11,6,6,6,6,9,9,6,6,9,9,5,6,7,7,7,8,10,9,6,5,4,3,4,4,4,2,1,2,4,4,3,3,2,2,4,3,3,1,3,4,2,1,0,0,1,3,4,2,3,3,2,1,2,5,6,6,7,9,9,8,9,7,9,9,9,7,7,7,7,9,9,9,8,9,7,5,6,6,9,8,7,7,6,1,0,0,3,3,0,0,1,4,2,0,3,3,0,0,3,3,0,0,0,0,1,3,3,1,0,0,0,1,2,4,4,2,1,0,0,0,0,2,4,1,0,0,0,0,0,0,0,0,0,0,3,3,0,0,0,0,0,0,0,0,0,0,0,0,0,0,1,2,3,4,4,2,2,3,4,4,4,4,4,4,3,3,3,4,4,4,6,6,4,6,6,3,3,4,5,3,4,3,1,2,4,3,3,3,1,3,3,2,3,4,4,3,3,4,4,3,3,2,2,3,3,3,4,2,2,4,4,4,4,3,4,4,4,3,1,0,0,0,0,0,0,1,2,4,4,3,2,1,0,0,0,2,4,3,3,3,2,4,2,4,2,1,4,2,1,4,2,2,4,1,2,4,2,2,4,3,3,1,1,2,2,1,0,2,4,3,4,4,3,2,1,0,0,0,2,4,4,2,0,0,3,3,0,0,0,0,2,4,4,5,6,6,6,6,5,2,4,4,3,0,0,1,1,1,1,3,5,7,8,9,5,1,4,2,1,4,9,9,6,6,6,6,9,9,9,9,5,6,5,4,5,1,6,8,-1,-1,-1,-1,-1,-1,-1,-1,-1,-1,-1,-1,-1,-1,-1,-1,-1,-1,-1,-1,-1,-1,-1,-1
-1,-1,-1,-1,-1,-1,-1,-1,-1,-1,-1,-1,-1,-1,-1,-1,-1,-1,-1,-1,-1,-1,-1,-1,-1,-1,-1,-1,-1,-1,-1,-1,-1,-1,-1,-1,-1,7,6,3,0,0,0,0,0,3,3,0,0,0,0,2,4,1,0,0,0,0,0,0,0,0,0,6,6,2,0,0,0,3,4,4,5,8,7,3,5,8,7,8,9,6,6,6,7,9,7,5,6,9,9,6,5,6,6,4,9,10,9,5,5,4,5,3,2,1,0,2,4,2,1,0,0,1,4,3,4,1,3,3,1,0,0,0,0,2,4,1,2,4,1,0,0,1,5,5,6,7,9,8,9,9,7,10,8,7,7,7,6,10,7,10,7,10,7,6,6,7,7,6,5,8,8,6,3,2,2,3,5,1,0,0,3,3,0,3,3,0,0,3,3,0,0,0,1,3,3,1,0,0,0,1,3,4,2,1,0,0,0,0,0,0,1,4,2,0,0,0,0,0,0,0,0,0,0,3,3,0,0,0,0,0,0,0,0,0,0,0,0,1,2,2,1,0,1,2,4,4,3,3,4,4,3,3,4,4,3,3,3,4,4,5,5,6,6,4,4,4,5,5,4,4,3,4,4,2,1,3,3,0,1,3,4,2,1,2,3,3,3,4,4,3,4,4,3,3,3,2,1,1,4,4,4,4,3,1,3,3,4,2,1,2,3,2,1,0,0,0,1,2,3,4,2,0,0,1,2,2,4,3,3,3,2,4,3,3,0,3,3,0,2,4,1,4,2,1,2,4,3,1,1,1,0,1,2,3,3,2,1,2,3,2,1,0,0,0,0,0,1,4,2,3,3,0,0,3,3,0,0,0,1,4,3,5,6,4,7,6,4,2,4,3,3,3,0,0,0,0,1,3,3,7,9,7,5,2,2,3,5,1,8,8,9,7,6,6,6,8,9,9,9,6,6,4,4,2,5,14,18,-1,-1,-1,-1,-1,-1,-1,-1,-1,-1,-1,-1,-1,-1,-1,-1,-1,-1,-1,-1,-1,-1,-1,-1
-1,-1,-1,-1,-1,-1,-1,-1,-1,-1,-1,-1,-1,-1,-1,-1,-1,-1,-1,-1,-1,-1,-1,-1,-1,-1,-1,-1,-1,-1,-1,-1,-1,-1,-1,-1,-1,11,6,7,4,0,0,0,0,2,4,3,3,2,1,1,3,3,1,0,0,0,0,0,0,0,0,6,6,2,0,0,0,2,4,5,4,7,9,7,4,8,8,6,5,7,6,5,8,8,7,6,5,9,8,6,6,7,10,7,5,8,8,6,4,5,4,3,1,1,0,2,4,1,4,4,5,5,4,4,2,2,4,1,2,3,3,3,3,4,2,2,4,2,0,0,1,2,4,3,5,7,7,6,9,7,7,8,10,7,8,8,7,8,8,7,8,7,10,8,6,6,7,6,5,9,9,9,5,4,2,6,5,1,0,0,2,4,2,2,4,1,0,2,4,2,1,1,3,3,1,0,0,0,0,2,4,1,0,0,0,0,0,1,2,3,3,4,2,0,0,0,0,0,0,1,2,3,3,4,2,0,0,0,0,0,0,0,0,0,0,0,0,1,4,4,1,0,0,0,1,2,3,3,3,4,4,3,3,4,4,4,4,4,5,5,4,4,7,7,6,4,7,7,6,4,4,3,0,1,0,3,3,0,0,2,2,4,1,0,0,0,0,1,3,4,2,1,0,0,0,0,0,0,3,4,5,6,5,1,1,3,4,6,3,5,2,4,1,0,0,0,0,0,0,2,4,2,1,1,4,3,3,1,2,4,2,3,4,8,7,5,7,2,1,3,4,4,8,6,5,2,3,3,1,1,2,2,2,2,3,4,4,2,1,0,0,0,0,0,1,2,4,3,1,3,3,0,0,2,4,2,1,0,2,4,5,8,5,10,7,4,3,4,2,2,4,2,0,0,1,2,7,8,11,15,9,5,5,1,4,6,7,5,9,10,9,7,6,6,8,9,10,9,9,6,5,2,4,2,11,9,6,-1,-1,-1,-1,-1,-1,-1,-1,-1,-1,-1,-1,-1,-1,-1,-1,-1,-1,-1,-1,-1,-1,-1,-1
-1,-1,-1,-1,-1,-1,-1,-1,-1,-1,-1,-1,-1,-1,-1,-1,-1,-1,-1,-1,-1,-1,-1,-1,-1,-1,-1,-1,-1,-1,-1,-1,-1,-1,-1,-1,-1,13,16,14,2,3,3,3,3,3,2,2,4,3,1,0,1,3,3,1,0,0,0,0,0,0,0,5,4,1,0,0,0,1,2,9,10,4,4,7,8,8,10,6,5,6,7,5,8,8,9,7,5,6,7,6,6,8,9,8,6,6,6,5,4,5,6,4,2,4,2,2,3,3,5,6,4,3,6,2,1,3,3,2,4,3,3,3,3,2,3,4,2,1,0,0,2,4,2,2,3,3,6,7,7,7,7,9,9,10,9,8,8,7,8,6,6,8,10,7,6,7,7,6,4,6,7,7,7,3,4,7,4,1,0,0,1,3,3,3,3,1,0,1,3,3,1,2,4,1,0,0,0,0,0,3,3,0,0,0,0,0,0,2,4,3,3,2,1,0,0,0,0,0,0,2,4,3,3,2,1,0,0,0,0,0,0,0,0,0,0,0,0,1,2,2,2,3,3,3,3,3,3,2,1,1,2,3,3,4,4,4,3,3,5,5,4,5,6,7,4,6,7,8,6,4,4,5,8,4,3,4,2,1,2,4,4,2,1,0,0,0,0,1,4,4,1,0,1,2,3,3,2,1,2,4,5,6,4,4,2,1,4,4,5,5,4,3,1,0,0,0,0,0,0,1,2,4,3,1,1,5,2,4,2,3,3,2,3,5,6,10,6,4,3,1,2,5,6,8,4,4,2,3,4,4,4,3,3,4,2,1,2,4,2,0,0,0,0,0,1,3,3,1,1,5,4,6,7,6,5,4,3,2,6,5,6,7,10,6,7,4,3,1,3,4,2,1,0,1,3,4,6,11,12,12,8,4,3,1,2,7,4,7,9,9,9,8,6,7,7,10,8,7,6,4,3,3,3,4,16,14,9,-1,-1,-1,-1,-1,-1,-1,-1,-1,-1,-1,-1,-1,-1,-1,-1,-1,-1,-1,-1,-1,-1,-1,-1
-1,-1,-1,-1,-1,-1,-1,-1,-1,-1,-1,-1,-1,-1,-1,-1,-1,-1,-1,-1,-1,-1,-1,-1,-1,-1,-1,-1,-1,-1,-1,-1,-1,-1,-1,-1,-1,29,7,9,2,3,3,3,3,3,3,4,3,3,1,0,0,1,3,3,1,0,0,0,0,0,0,3,3,0,0,0,0,0,0,7,9,5,5,3,6,8,8,6,6,5,7,6,5,9,9,6,6,6,6,6,6,6,8,9,7,8,9,6,5,6,6,6,3,4,4,7,5,4,2,1,2,4,2,0,1,4,2,3,3,0,0,0,1,3,3,1,0,0,0,0,2,4,1,1,3,3,6,7,7,7,6,9,10,10,11,10,7,9,6,6,7,7,7,8,6,6,7,7,6,6,6,4,4,4,4,3,0,0,0,0,1,3,3,2,4,1,0,0,2,4,1,3,3,0,0,0,0,1,2,4,2,0,0,0,0,1,2,4,2,0,0,0,0,0,0,0,0,0,1,4,2,0,0,0,0,0,0,0,0,0,0,0,0,0,0,0,0,0,0,2,4,3,3,3,3,3,3,4,4,3,3,3,4,4,3,4,4,3,2,2,4,4,3,3,4,4,4,6,6,4,4,8,7,6,4,4,3,4,4,2,1,0,0,0,0,0,0,1,3,4,3,3,4,4,3,3,4,4,2,3,4,6,6,3,4,4,3,4,5,3,3,4,2,0,0,0,0,0,0,0,0,1,3,3,1,2,4,3,2,3,3,2,4,3,4,4,5,3,3,4,3,3,3,3,5,2,4,1,2,2,1,2,4,4,2,0,1,4,2,0,0,0,0,0,1,3,3,1,2,5,8,8,8,9,5,3,5,5,6,6,6,7,5,4,5,2,1,3,3,1,0,0,0,2,4,4,7,6,5,3,4,3,2,1,3,3,4,11,12,6,6,6,7,7,6,5,4,7,7,3,3,3,3,5,7,32,11,-1,-1,-1,-1,-1,-1,-1,-1,-1,-1,-1,-1,-1,-1,-1,-1,-1,-1,-1,-1,-1,-1,-1,-1
-1,-1,-1,-1,-1,-1,-1,-1,-1,-1,-1,-1,-1,-1,-1,-1,-1,-1,-1,-1,-1,-1,-1,-1,-1,-1,-1,-1,-1,-1,-1,-1,-1,-1,-1,-1,-1,32,10,8,5,0,0,0,0,0,0,1,1,1,0,0,0,0,1,4,2,0,0,0,0,0,0,3,3,0,0,0,0,0,0,4,5,7,5,4,4,5,7,6,6,6,6,6,6,9,9,6,6,6,6,6,6,7,9,8,6,9,9,5,6,6,6,3,3,3,4,6,6,2,1,2,4,2,1,1,3,3,1,3,3,0,0,1,3,3,1,0,0,0,0,0,1,4,2,0,1,4,6,7,7,7,6,9,10,10,10,9,9,7,7,7,5,7,7,6,6,8,7,6,6,7,7,6,6,6,6,3,0,0,0,1,3,3,1,3,3,0,0,1,4,2,1,4,2,0,0,1,2,4,4,2,1,0,0,0,1,3,4,2,1,0,0,0,0,0,0,0,0,1,3,3,1,0,0,0,0,0,0,0,0,0,0,1,2,3,3,3,3,3,3,4,2,0,0,0,0,0,0,1,2,3,3,3,3,3,3,3,4,4,4,4,3,3,3,3,4,4,4,5,5,4,4,6,6,4,4,4,4,4,2,2,2,3,3,2,1,0,0,2,4,3,3,3,2,1,0,0,1,2,4,3,4,6,6,5,5,4,4,5,4,4,4,3,6,3,3,2,1,0,0,0,0,0,1,3,3,1,1,1,1,2,4,2,4,3,4,2,3,3,3,2,3,3,3,6,4,3,3,3,1,0,0,1,2,2,1,1,3,3,1,0,0,0,1,2,2,1,3,3,3,7,8,6,3,7,6,4,6,6,6,6,8,7,7,5,1,1,3,3,1,0,0,0,1,5,5,8,7,5,4,5,4,1,0,1,4,3,4,12,12,7,7,6,7,7,7,5,5,8,6,4,2,3,3,2,12,18,13,-1,-1,-1,-1,-1,-1,-1,-1,-1,-1,-1,-1,-1,-1,-1,-1,-1,-1,-1,-1,-1,-1,-1,-1
-1,-1,-1,-1,-1,-1,-1,-1,-1,-1,-1,-1,-1,-1,-1,-1,-1,-1,-1,-1,-1,-1,-1,-1,-1,-1,-1,-1,-1,-1,-1,-1,-1,-1,-1,-1,-1,16,13,10,2,0,0,0,0,0,0,0,0,0,0,0,0,0,0,3,3,0,0,0,0,0,1,4,2,0,0,0,0,0,0,1,5,7,7,6,6,5,6,6,6,6,7,6,6,9,8,6,6,7,6,5,6,8,9,7,6,9,9,6,5,6,6,5,2,2,4,4,4,3,1,3,3,0,1,3,3,1,0,3,3,0,0,2,4,1,0,0,0,0,0,0,0,3,3,0,0,3,4,6,8,7,4,7,8,9,11,9,7,8,7,7,7,6,7,7,6,7,10,6,6,6,6,6,6,8,7,3,0,0,0,2,4,1,0,3,3,0,1,3,3,2,4,3,1,1,2,4,4,2,1,0,0,0,0,1,3,3,1,0,0,0,0,0,0,0,0,1,2,4,3,1,0,0,0,0,0,0,0,0,0,0,0,2,4,3,3,3,3,3,3,2,1,0,0,0,0,0,0,1,2,3,3,4,4,3,3,3,3,4,4,3,3,4,4,4,4,3,4,4,4,4,4,6,6,4,4,4,3,3,4,3,4,3,3,4,4,3,3,4,2,0,0,0,0,0,0,1,2,3,3,4,5,5,6,6,6,4,4,4,4,5,4,6,6,4,4,4,4,3,2,1,0,0,1,3,3,1,0,1,1,1,4,2,2,3,2,3,3,1,3,4,2,1,0,3,3,3,3,4,2,0,0,0,0,0,0,2,4,1,0,0,1,2,4,4,4,4,2,3,5,7,7,8,6,4,5,6,7,6,9,9,9,8,5,5,4,4,3,1,0,0,0,0,2,5,7,7,9,5,1,6,6,3,1,2,4,5,5,11,12,7,7,7,6,7,6,4,4,6,6,4,1,3,3,1,11,23,8,-1,-1,-1,-1,-1,-1,-1,-1,-1,-1,-1,-1,-1,-1,-1,-1,-1,-1,-1,-1,-1,-1,-1,-1
-1,-1,-1,-1,-1,-1,-1,-1,-1,-1,-1,-1,-1,-1,-1,-1,-1,-1,-1,-1,-1,-1,-1,-1,-1,-1,-1,-1,-1,-1,-1,-1,-1,-1,-1,-1,-1,13,24,6,2,0,0,0,0,0,0,0,0,1,2,3,3,2,1,3,3,0,0,0,0,1,3,3,1,0,0,0,0,0,0,1,3,6,7,7,7,6,6,6,6,7,7,7,6,6,7,6,6,8,9,5,5,9,8,6,7,9,7,5,6,7,6,4,3,4,2,1,1,3,4,4,2,1,3,3,1,1,2,4,2,0,1,4,2,0,0,0,0,0,0,0,0,2,4,1,0,3,4,4,7,8,6,6,8,9,9,9,8,7,8,6,6,7,7,6,6,10,7,6,6,7,7,6,4,7,8,5,0,0,1,4,2,0,0,3,3,0,2,4,2,4,2,1,2,4,4,2,1,0,0,0,0,0,0,2,4,1,0,1,2,3,3,3,3,3,3,4,4,2,1,0,0,0,0,0,0,0,0,0,0,0,0,3,3,0,0,0,0,0,0,0,0,0,0,0,0,0,0,2,4,3,3,2,1,0,0,1,1,1,2,4,4,2,2,2,1,0,1,2,3,3,3,5,5,4,3,4,4,3,3,4,3,3,3,3,3,3,3,2,1,0,0,0,1,2,3,4,4,3,3,5,5,6,6,6,6,5,5,4,6,6,4,6,6,4,4,6,6,4,5,5,3,3,4,4,2,1,0,2,4,2,3,3,0,0,0,3,3,0,1,2,4,2,0,2,4,1,4,4,3,0,0,0,0,0,1,4,2,0,0,1,3,4,2,1,1,2,4,4,5,4,3,6,6,1,2,5,7,6,8,9,8,4,3,2,2,2,1,0,0,0,0,3,6,9,8,7,5,3,4,8,6,3,1,4,5,5,6,10,10,7,8,8,6,5,6,5,3,4,4,3,0,3,3,1,12,13,9,-1,-1,-1,-1,-1,-1,-1,-1,-1,-1,-1,-1,-1,-1,-1,-1,-1,-1,-1,-1,-1,-1,-1,-1
-1,-1,-1,-1,-1,-1,-1,-1,-1,-1,-1,-1,-1,-1,-1,-1,-1,-1,-1,-1,-1,-1,-1,-1,-1,-1,-1,-1,-1,-1,-1,-1,-1,-1,-1,-1,-1,6,19,6,2,0,0,0,0,0,0,0,1,3,4,3,3,4,3,2,4,1,0,0,1,3,3,1,0,0,0,0,0,0,0,2,5,6,5,5,7,8,6,4,7,8,9,7,6,6,6,6,6,9,9,7,6,8,7,6,7,9,9,8,5,7,7,5,2,1,2,3,2,1,3,4,3,4,3,1,1,3,4,2,1,1,3,3,1,0,0,1,1,1,0,0,0,1,4,3,1,2,5,6,6,7,6,6,8,11,11,10,7,9,6,6,7,7,7,7,6,7,8,6,6,6,7,7,6,5,7,6,1,1,3,3,1,0,0,3,3,1,4,2,4,2,2,4,4,2,1,0,0,1,2,2,2,2,3,4,2,0,0,2,4,3,3,3,3,3,3,2,1,0,0,0,0,0,0,1,2,3,3,3,3,3,3,4,2,0,0,0,0,0,0,0,0,0,0,0,0,0,0,3,3,0,0,0,0,0,0,2,3,3,1,1,2,4,2,1,2,3,3,3,3,3,3,2,2,4,4,3,4,4,4,4,4,4,4,4,4,4,3,3,3,3,3,3,4,4,3,2,1,2,3,3,4,6,6,6,6,6,7,6,6,7,6,6,7,6,6,7,6,4,6,6,4,4,4,3,3,3,3,3,5,2,4,2,0,0,0,3,3,0,0,0,3,3,0,1,4,2,4,4,3,0,0,0,0,1,3,3,1,1,2,4,3,1,1,2,3,3,2,3,3,3,5,6,8,4,4,5,7,6,6,6,5,2,1,1,2,3,3,3,3,3,3,7,8,8,8,6,5,2,2,2,4,3,2,4,6,7,7,8,8,8,10,9,4,5,6,3,4,6,4,2,0,3,3,2,7,9,-1,-1,-1,-1,-1,-1,-1,-1,-1,-1,-1,-1,-1,-1,-1,-1,-1,-1,-1,-1,-1,-1,-1,-1,-1
-1,-1,-1,-1,-1,-1,-1,-1,-1,-1,-1,-1,-1,-1,-1,-1,-1,-1,-1,-1,-1,-1,-1,-1,-1,-1,-1,-1,-1,-1,-1,-1,-1,-1,-1,-1,-1,16,16,8,7,3,3,3,3,3,3,1,2,3,1,2,2,1,3,3,3,3,1,0,2,4,1,0,0,0,0,0,0,0,0,2,4,3,4,3,6,8,7,3,8,10,9,6,6,6,6,6,6,9,9,5,9,7,6,6,8,9,10,9,5,6,7,5,4,2,4,3,4,3,4,4,3,2,1,0,2,4,1,0,1,3,3,1,0,0,0,2,4,2,0,0,0,0,2,3,3,3,5,6,7,7,7,6,8,10,10,9,9,7,7,7,5,8,7,6,7,7,6,6,6,8,7,6,8,7,6,4,2,3,3,1,0,0,0,3,3,2,4,2,4,2,4,2,1,0,0,0,1,3,4,4,3,4,3,2,1,0,0,5,4,3,3,3,3,3,3,2,1,0,0,0,0,0,0,2,4,3,3,3,3,3,3,2,1,0,0,0,0,0,0,0,0,0,0,0,0,0,0,3,3,0,0,0,0,0,0,3,3,4,2,0,0,3,3,2,4,3,3,3,3,3,3,4,4,3,4,4,4,4,4,4,4,4,3,4,3,2,3,3,3,3,3,3,3,3,3,3,4,4,3,3,3,5,4,5,5,6,7,6,6,7,6,6,6,4,4,5,5,4,5,5,4,4,4,3,3,3,3,6,4,3,3,2,3,3,3,4,2,0,0,0,3,3,1,1,3,4,4,3,3,0,1,1,1,2,4,1,0,2,4,2,1,0,2,4,3,3,4,3,4,4,8,9,9,7,6,8,7,6,6,4,1,0,0,2,4,3,3,3,3,3,3,8,11,5,4,4,3,0,0,1,1,1,3,4,6,7,7,6,9,10,10,8,4,6,6,5,2,6,6,1,0,3,3,2,12,10,-1,-1,-1,-1,-1,-1,-1,-1,-1,-1,-1,-1,-1,-1,-1,-1,-1,-1,-1,-1,-1,-1,-1,-1,-1
-1,-1,-1,-1,-1,-1,-1,-1,-1,-1,-1,-1,-1,-1,-1,-1,-1,-1,-1,-1,-1,-1,-1,-1,-1,-1,-1,-1,-1,-1,-1,-1,-1,-1,-1,-1,-1,40,30,22,7,8,8,7,4,4,4,3,4,6,5,6,6,4,3,1,5,6,4,3,4,2,0,0,0,0,0,0,0,1,2,3,1,2,2,4,3,6,11,9,5,8,11,9,8,7,5,7,6,9,8,6,5,6,6,6,8,7,8,8,6,6,6,8,8,3,3,2,3,6,6,4,1,1,2,3,4,2,0,0,1,3,3,1,1,2,3,3,2,2,0,0,0,0,1,1,2,3,4,4,5,6,6,7,7,9,11,8,7,7,7,7,7,7,10,6,6,8,7,4,4,7,8,6,7,8,6,4,5,5,2,2,2,2,2,6,3,4,2,3,3,2,4,2,1,0,0,0,1,3,3,2,1,1,0,0,0,0,0,4,7,2,2,2,2,2,2,4,1,0,0,0,0,0,0,2,4,3,3,3,2,1,0,0,0,0,0,0,0,0,0,0,0,0,0,0,0,0,0,3,3,0,0,0,0,0,0,3,3,2,4,3,3,4,7,6,3,3,3,3,3,3,3,3,4,4,4,4,4,4,4,3,4,5,5,3,4,5,3,3,3,3,3,4,4,3,3,3,2,1,0,0,0,1,3,4,4,4,5,5,4,5,7,6,7,4,5,5,3,4,4,4,4,4,4,7,6,5,3,4,7,5,4,4,3,4,4,4,3,3,3,3,4,2,1,2,3,4,3,3,3,0,1,3,3,5,2,0,0,3,3,1,1,1,4,2,4,6,8,11,11,8,7,9,7,8,9,12,8,5,4,2,1,0,0,3,3,1,2,2,1,4,6,13,9,5,4,4,2,0,0,0,0,3,6,7,7,7,7,7,7,11,9,6,5,6,5,1,4,5,4,0,0,3,3,2,11,10,-1,-1,-1,-1,-1,-1,-1,-1,-1,-1,-1,-1,-1,-1,-1,-1,-1,-1,-1,-1,-1,-1,-1,-1,-1
-1,-1,-1,-1,-1,-1,-1,-1,-1,-1,-1,-1,-1,-1,-1,-1,-1,-1,-1,-1,-1,-1,-1,-1,-1,-1,-1,-1,-1,-1,-1,-1,-1,-1,-1,-1,-1,31,31,15,12,9,9,8,7,8,9,7,4,7,6,6,6,5,3,4,8,5,5,2,2,2,0,0,0,0,0,0,1,3,4,3,4,3,4,2,1,7,8,5,6,8,8,11,7,7,6,6,7,6,6,5,6,8,9,6,7,8,6,7,6,6,6,9,9,5,6,5,6,7,7,1,2,3,4,3,2,1,0,0,1,3,3,1,1,4,2,2,1,1,0,0,0,0,0,0,2,4,3,3,5,8,7,6,7,9,10,8,7,7,7,7,6,9,7,6,8,8,8,5,7,7,8,7,6,8,7,3,5,5,3,4,4,3,4,3,6,2,1,3,3,1,2,4,2,0,0,0,1,2,3,4,2,0,0,0,0,0,0,5,4,3,3,3,3,3,3,2,1,0,0,0,0,0,0,1,2,3,3,2,4,1,0,0,0,0,0,0,0,0,0,0,0,0,0,1,2,3,3,4,2,0,0,0,0,0,0,2,4,1,2,3,3,5,6,4,5,3,3,3,3,3,3,3,3,3,3,3,3,3,4,3,4,5,4,3,5,5,4,4,4,4,4,4,3,3,3,3,3,3,3,3,3,3,3,3,3,4,3,2,4,3,6,10,7,4,5,5,5,5,4,4,4,4,6,6,7,4,4,6,5,6,4,3,4,4,3,4,3,3,3,3,3,3,3,3,1,3,3,4,2,0,1,3,5,3,2,3,3,6,5,4,6,6,6,6,6,8,8,11,11,8,4,2,3,5,6,9,6,2,3,3,3,1,0,3,3,1,4,4,3,5,8,8,10,3,6,2,1,0,0,0,1,5,7,5,7,9,7,8,10,11,7,6,5,4,3,3,4,5,2,0,0,3,3,6,4,15,-1,-1,-1,-1,-1,-1,-1,-1,-1,-1,-1,-1,-1,-1,-1,-1,-1,-1,-1,-1,-1,-1,-1,-1,-1
-1,-1,-1,-1,-1,-1,-1,-1,-1,-1,-1,-1,-1,-1,-1,-1,-1,-1,-1,-1,-1,-1,-1,-1,-1,-1,-1,-1,-1,-1,-1,-1,-1,-1,-1,-1,-1,33,12,20,9,7,7,6,9,9,9,9,6,2,3,4,3,3,4,6,7,8,7,4,4,3,1,0,0,0,0,0,1,3,2,1,4,4,3,0,0,3,4,4,1,6,7,7,10,6,7,5,7,6,7,9,5,9,9,7,10,9,8,6,6,6,6,9,9,6,6,6,5,5,6,5,3,3,1,0,0,0,0,0,1,3,3,1,1,2,3,2,2,3,3,2,1,0,0,0,3,3,3,3,3,7,8,6,6,11,11,7,7,7,7,7,9,6,7,7,7,8,6,5,7,8,8,8,4,8,8,4,4,5,5,2,1,1,1,4,2,0,0,3,3,0,0,3,3,0,0,0,0,0,0,3,3,0,0,0,0,0,0,3,3,0,0,0,0,0,0,0,0,0,0,0,0,0,0,1,2,3,4,4,2,1,0,0,0,0,0,0,0,0,0,0,0,1,2,4,4,3,3,2,1,0,0,0,0,0,0,1,3,3,1,0,0,0,1,1,1,0,0,0,0,0,0,0,0,0,1,2,3,3,3,4,2,1,3,4,3,3,3,3,3,3,3,3,3,3,3,3,4,4,3,3,3,3,3,4,4,2,3,3,1,1,1,4,7,5,5,4,6,6,4,4,4,4,4,4,3,4,4,4,4,4,4,4,6,6,7,5,4,1,2,4,4,4,4,4,3,6,4,3,2,3,3,5,3,4,5,4,4,6,6,7,8,7,7,7,7,6,6,6,4,3,4,3,3,2,4,2,0,2,4,2,3,1,1,4,2,1,2,2,5,6,4,6,5,4,2,0,0,0,0,1,4,7,5,6,8,12,9,10,9,10,9,6,5,6,4,3,1,3,3,1,0,2,4,3,17,6,-1,-1,-1,-1,-1,-1,-1,-1,-1,-1,-1,-1,-1,-1,-1,-1,-1,-1,-1,-1,-1,-1,-1,-1,-1
-1,-1,-1,-1,-1,-1,-1,-1,-1,-1,-1,-1,-1,-1,-1,-1,-1,-1,-1,-1,-1,-1,-1,-1,-1,-1,-1,-1,-1,-1,-1,-1,-1,-1,-1,-1,-1,21,10,11,8,7,7,6,7,5,5,9,4,4,3,2,3,3,2,3,6,6,6,5,5,4,5,3,3,3,2,1,1,3,4,5,4,4,2,0,0,3,3,2,1,5,6,9,8,6,6,6,6,7,8,6,7,9,9,8,9,11,9,6,6,6,6,9,9,6,6,5,2,3,4,3,1,1,0,0,0,0,0,1,3,3,1,0,0,1,2,5,5,3,3,4,2,0,1,1,3,3,4,2,3,6,6,6,7,10,11,9,7,9,6,9,7,7,7,7,7,7,9,6,5,8,8,8,6,8,8,4,4,5,5,1,0,0,2,4,1,0,0,3,3,0,0,3,3,0,0,0,0,0,0,3,3,0,0,0,0,0,0,3,3,0,0,0,0,0,0,0,0,0,0,0,0,0,0,1,3,3,2,1,0,0,0,0,0,0,0,0,0,0,0,0,0,1,4,2,2,0,0,0,0,0,0,0,0,0,0,0,1,4,2,0,0,0,0,0,0,0,0,0,0,0,0,1,2,3,4,4,3,3,3,3,4,4,3,4,4,4,4,3,3,3,3,3,3,3,3,4,4,4,4,3,3,3,3,3,3,4,3,3,4,3,4,5,4,5,5,4,6,6,4,4,3,4,4,4,4,4,4,4,4,4,4,4,6,8,7,8,8,5,5,4,5,5,4,4,4,5,4,3,4,3,2,2,5,6,6,4,6,9,9,8,9,8,7,6,7,6,4,6,5,4,3,4,4,4,2,1,0,2,4,4,3,1,3,3,2,3,3,5,6,6,5,7,7,2,1,0,0,0,1,4,6,6,6,8,9,10,12,9,9,9,8,6,5,3,5,1,0,1,4,2,0,1,2,4,11,9,-1,-1,-1,-1,-1,-1,-1,-1,-1,-1,-1,-1,-1,-1,-1,-1,-1,-1,-1,-1,-1,-1,-1,-1,-1
-1,-1,-1,-1,-1,-1,-1,-1,-1,-1,-1,-1,-1,-1,-1,-1,-1,-1,-1,-1,-1,-1,-1,-1,-1,-1,-1,-1,-1,-1,-1,-1,-1,-1,-1,-1,-1,20,13,13,12,9,9,9,9,7,6,5,4,2,3,1,0,0,0,3,4,3,2,4,5,6,6,4,4,4,4,4,3,3,4,6,6,4,3,2,1,3,4,2,2,4,6,6,7,6,6,6,6,8,9,5,5,9,8,6,6,9,9,6,6,6,6,9,9,6,6,6,5,4,2,4,2,0,0,0,0,0,1,3,3,1,0,0,0,2,4,3,5,2,0,3,3,1,3,3,2,4,4,2,4,4,4,4,6,9,10,8,9,9,7,7,7,7,7,7,6,10,7,8,7,8,8,6,8,8,8,6,4,4,3,0,0,0,3,3,0,0,0,3,3,0,0,3,3,0,0,0,0,0,0,3,3,0,0,0,0,1,2,4,2,0,0,0,0,0,0,1,2,3,3,3,3,3,3,2,3,4,3,2,1,0,0,0,0,0,0,0,0,0,0,0,0,1,2,4,4,3,2,1,0,0,0,0,0,0,0,0,0,3,3,0,0,0,0,0,0,0,0,0,1,2,3,4,4,3,2,1,2,3,3,2,1,2,3,3,4,4,4,4,4,4,4,4,4,4,4,3,1,1,2,3,3,3,3,3,4,3,3,3,2,3,2,3,3,4,4,4,5,5,4,5,5,3,4,4,4,4,4,4,4,4,4,4,5,5,3,8,11,8,6,4,6,6,4,4,4,4,4,3,1,3,4,4,9,9,7,8,9,8,9,10,8,7,6,5,5,3,2,1,2,4,4,3,2,1,0,1,1,1,2,3,3,5,4,5,5,4,4,6,6,6,5,4,4,0,0,0,1,2,5,6,6,6,6,9,10,10,9,7,9,8,6,5,1,3,3,0,0,0,3,3,0,0,1,4,16,14,-1,-1,-1,-1,-1,-1,-1,-1,-1,-1,-1,-1,-1,-1,-1,-1,-1,-1,-1,-1,-1,-1,-1,-1,-1
-1,-1,-1,-1,-1,-1,-1,-1,-1,-1,-1,-1,-1,-1,-1,-1,-1,-1,-1,-1,-1,-1,-1,-1,-1,-1,-1,-1,-1,-1,-1,-1,-1,-1,-1,-1,-1,18,4,14,6,7,8,8,8,8,6,4,3,5,4,3,3,3,3,3,5,3,1,1,2,5,5,4,4,5,4,2,3,4,4,5,5,3,3,3,1,3,4,4,4,4,6,6,6,6,7,7,7,9,8,6,5,6,7,6,6,9,9,7,8,9,8,9,11,9,8,6,5,2,1,3,3,0,0,0,1,2,4,3,1,0,0,0,0,3,3,2,4,2,1,4,2,3,3,3,5,6,4,4,2,4,4,4,4,7,8,6,10,8,7,8,7,8,7,7,7,7,8,7,8,7,8,6,7,8,7,7,6,4,3,0,0,0,3,3,0,0,0,3,3,0,0,3,3,0,0,0,0,0,0,3,3,0,0,0,1,3,4,2,1,0,0,0,0,0,0,2,4,3,3,3,3,3,3,4,2,2,3,4,4,2,1,0,0,0,0,0,0,0,0,0,0,0,0,1,2,3,4,3,1,0,0,0,0,0,0,0,0,3,3,0,0,0,0,0,0,0,0,1,3,4,3,2,1,0,1,3,4,3,3,4,4,3,3,3,2,2,3,3,3,3,3,3,3,3,3,4,4,3,2,1,0,0,0,0,1,4,2,3,4,3,4,3,2,2,3,4,4,3,3,6,3,3,3,3,3,4,4,4,4,4,4,4,4,3,5,7,7,7,6,4,5,5,4,4,4,3,2,1,4,5,6,6,8,9,10,9,9,8,7,6,4,4,4,3,1,0,0,2,4,3,4,2,0,1,2,5,4,5,5,5,6,7,6,6,6,4,4,6,6,4,3,3,1,0,0,1,4,5,6,6,6,8,9,11,9,9,9,7,6,5,4,3,0,3,3,0,1,2,4,2,1,2,4,0,12,22,-1,-1,-1,-1,-1,-1,-1,-1,-1,-1,-1,-1,-1,-1,-1,-1,-1,-1,-1,-1,-1,-1,-1,-1,-1
-1,-1,-1,-1,-1,-1,-1,-1,-1,-1,-1,-1,-1,-1,-1,-1,-1,-1,-1,-1,-1,-1,-1,-1,-1,-1,-1,-1,-1,-1,-1,-1,-1,-1,-1,-1,-1,21,8,13,4,1,3,3,3,5,5,4,4,6,6,4,4,4,4,7,4,1,0,0,0,1,2,3,3,6,5,2,2,4,3,2,1,0,2,4,2,3,6,6,6,3,5,6,6,5,5,9,9,9,7,6,6,6,6,6,6,9,11,9,9,11,9,8,9,10,9,8,6,5,2,3,3,0,0,0,2,4,2,1,0,0,0,0,0,2,4,1,2,2,4,3,2,4,1,1,3,6,5,2,4,3,4,4,4,6,8,7,7,8,8,9,8,8,8,6,8,7,8,7,7,7,8,7,6,8,7,8,7,4,3,0,0,1,4,2,0,0,0,3,3,0,0,3,3,0,0,0,0,0,0,3,3,0,0,1,3,3,1,0,0,0,0,0,0,0,0,3,3,0,0,0,0,0,0,3,3,0,0,2,2,4,1,0,0,0,0,0,0,0,0,0,0,0,0,0,1,2,3,3,1,0,0,0,0,0,0,0,1,4,2,0,0,0,0,0,0,0,0,2,4,1,0,0,0,0,2,4,1,0,0,1,2,3,3,3,4,4,3,3,3,3,3,3,3,3,3,3,4,4,4,4,3,2,1,0,0,3,3,1,2,3,2,3,3,0,0,1,2,4,2,2,4,3,3,3,5,5,4,4,4,4,4,4,6,7,8,7,6,4,4,4,4,4,4,3,4,3,1,4,6,7,7,7,7,6,7,8,7,6,6,6,4,4,3,4,3,1,0,2,4,3,4,2,1,4,5,6,7,7,7,6,6,7,5,7,6,4,4,5,4,3,3,1,0,0,0,2,5,6,6,8,9,10,10,9,8,9,9,6,5,5,4,2,0,3,3,2,4,4,2,1,3,4,2,4,9,20,-1,-1,-1,-1,-1,-1,-1,-1,-1,-1,-1,-1,-1,-1,-1,-1,-1,-1,-1,-1,-1,-1,-1,-1,-1
-1,-1,-1,-1,-1,-1,-1,-1,-1,-1,-1,-1,-1,-1,-1,-1,-1,-1,-1,-1,-1,-1,-1,-1,-1,-1,-1,-1,-1,-1,-1,-1,-1,-1,-1,-1,25,25,21,13,2,2,3,2,2,3,4,4,4,5,5,4,4,4,3,8,6,0,1,2,3,3,3,2,1,3,4,3,2,4,1,0,0,1,5,5,5,6,6,6,4,4,3,5,6,5,3,6,8,8,6,6,6,6,6,6,6,8,9,8,7,9,9,6,6,8,10,9,6,5,4,3,2,0,0,1,4,2,0,0,0,0,0,0,0,1,3,4,4,4,2,1,4,2,0,0,3,6,5,4,2,2,4,4,4,4,7,8,5,8,9,9,8,8,8,4,8,8,8,8,6,8,8,8,6,8,8,8,8,4,3,0,0,2,4,1,0,0,0,3,3,0,0,3,3,0,0,0,0,0,0,3,3,0,0,2,4,1,0,0,0,0,0,0,0,0,0,3,3,0,0,0,0,0,0,2,4,3,3,4,4,2,1,0,0,0,0,0,0,0,0,0,0,0,1,2,4,4,3,2,1,0,0,0,0,0,0,1,3,3,1,0,0,0,1,1,1,0,0,3,3,0,0,0,0,0,3,3,0,0,1,1,1,0,0,0,1,2,3,3,3,3,3,3,3,3,3,3,3,4,4,3,3,4,4,2,1,3,3,0,0,0,0,3,3,0,0,0,1,4,2,1,3,4,4,4,5,5,3,4,4,4,4,4,4,7,6,7,6,4,4,4,3,2,1,0,1,4,3,5,6,7,7,7,6,6,6,6,3,2,3,4,3,4,3,1,3,3,1,1,2,3,2,1,3,4,6,4,6,4,6,5,4,5,5,6,5,3,4,4,4,3,1,0,0,0,1,5,6,6,7,8,11,9,8,6,6,9,9,5,4,3,4,1,1,5,5,5,2,1,1,3,3,1,1,2,10,21,-1,-1,-1,-1,-1,-1,-1,-1,-1,-1,-1,-1,-1,-1,-1,-1,-1,-1,-1,-1,-1,-1,-1,-1,-1
-1,-1,-1,-1,-1,-1,-1,-1,-1,-1,-1,-1,-1,-1,-1,-1,-1,-1,-1,-1,-1,-1,-1,-1,-1,-1,-1,-1,-1,-1,-1,-1,-1,-1,-1,-1,-1,-1,-1,-1,-1,4,3,2,4,2,2,2,3,4,6,8,3,7,3,6,10,11,11,7,7,8,7,4,2,2,5,8,7,6,4,2,1,3,4,6,5,5,6,3,1,2,4,5,6,5,2,6,7,7,6,7,6,6,5,6,6,6,6,6,6,9,9,7,8,9,9,11,9,8,4,2,1,0,0,1,3,3,1,0,0,0,0,0,0,0,1,2,2,1,1,1,5,3,1,4,7,6,6,2,1,4,3,4,3,4,7,8,7,8,8,9,10,7,9,6,8,8,8,8,4,8,8,8,7,8,7,8,7,5,5,2,2,3,6,2,1,0,1,4,2,0,0,2,4,2,1,0,0,1,2,4,2,0,1,4,2,0,0,0,0,0,0,0,0,1,2,4,2,0,0,0,0,0,0,1,2,3,3,3,3,3,5,3,3,0,0,0,0,0,0,1,2,3,4,4,2,1,0,0,0,0,0,1,2,3,3,4,3,1,0,0,0,0,1,2,1,0,1,4,2,0,0,0,0,0,3,3,0,0,1,2,1,0,0,0,0,1,2,3,3,3,3,3,3,3,3,2,1,1,2,4,2,2,2,2,1,2,4,3,3,2,1,3,3,0,1,2,4,3,1,2,4,3,3,3,2,2,4,4,3,3,3,4,4,3,4,5,3,3,3,4,4,3,3,3,2,3,4,4,5,8,7,6,5,6,6,6,8,7,2,1,0,1,4,2,1,4,2,1,2,3,5,6,6,7,6,5,6,8,7,7,5,4,3,1,2,4,4,3,2,2,3,2,2,4,8,8,7,8,8,11,9,6,6,8,9,11,8,5,3,6,3,3,4,4,6,4,1,1,3,3,1,0,1,6,9,25,-1,-1,-1,-1,-1,-1,-1,-1,-1,-1,-1,-1,-1,-1,-1,-1,-1,-1,-1,-1,-1,-1,-1,-1,-1
-1,-1,-1,-1,-1,-1,-1,-1,-1,-1,-1,-1,-1,-1,-1,-1,-1,-1,-1,-1,-1,-1,-1,-1,-1,-1,-1,-1,-1,-1,-1,-1,-1,-1,-1,-1,-1,-1,-1,-1,-1,-1,-1,-1,-1,-1,-1,-1,-1,-1,-1,-1,-1,-1,-1,6,8,10,14,10,14,4,12,12,3,2,3,6,7,6,5,4,3,4,3,3,2,2,4,2,0,1,4,3,5,6,6,4,7,6,7,7,7,6,5,4,6,6,6,6,6,9,9,5,8,10,9,9,10,9,8,5,3,2,1,1,3,3,1,0,0,0,0,1,2,3,3,3,2,1,1,4,4,3,3,5,7,3,3,2,3,3,4,2,3,4,7,8,7,8,5,9,7,10,8,7,7,8,7,8,6,8,9,8,7,8,7,8,5,5,5,1,4,5,4,3,1,0,2,4,1,0,0,1,3,3,1,0,1,3,4,2,1,1,3,3,1,0,0,0,0,0,0,0,0,1,3,3,1,0,0,0,0,0,0,0,0,0,2,4,3,3,4,6,4,3,3,2,1,0,0,2,4,3,2,1,0,0,0,0,0,0,0,2,4,3,3,2,1,0,0,0,0,0,1,1,1,0,2,4,1,0,0,0,0,0,3,3,0,0,1,1,1,0,0,0,0,2,4,3,3,3,3,3,3,3,3,4,2,0,0,2,4,3,5,2,3,2,2,3,3,4,2,3,3,0,2,4,2,1,1,4,2,0,0,0,2,4,2,2,1,1,3,4,3,3,2,3,3,0,0,1,2,3,3,3,5,6,6,5,7,8,7,5,4,6,6,7,9,7,1,0,0,0,3,3,1,4,2,2,4,4,4,6,6,7,5,6,8,7,7,6,5,2,1,2,4,2,1,0,2,4,3,5,6,5,8,9,6,9,11,9,8,6,6,7,10,8,7,2,4,4,5,3,2,4,2,1,1,3,3,1,0,0,1,4,18,5,-1,-1,-1,-1,-1,-1,-1,-1,-1,-1,-1,-1,-1,-1,-1,-1,-1,-1,-1,-1,-1,-1,-1,-1,-1
-1,-1,-1,-1,-1,-1,-1,-1,-1,-1,-1,-1,-1,-1,-1,-1,-1,-1,-1,-1,-1,-1,-1,-1,-1,-1,-1,-1,-1,-1,-1,-1,-1,-1,-1,-1,-1,-1,-1,-1,-1,-1,-1,-1,-1,-1,-1,-1,-1,-1,-1,-1,-1,-1,-1,-1,-1,-1,-1,-1,-1,20,19,19,14,5,4,1,2,3,2,3,4,3,3,3,0,2,4,1,0,0,2,4,4,6,6,7,5,6,8,9,6,6,4,4,5,6,6,6,6,9,9,6,5,6,7,6,8,9,10,9,4,4,4,3,4,3,1,1,2,3,3,4,4,3,3,3,4,2,1,1,2,4,4,4,3,3,3,2,4,2,4,1,3,4,8,8,8,8,4,8,8,8,8,8,7,8,7,8,7,8,9,8,7,8,7,7,4,4,4,3,2,2,2,4,1,0,3,3,0,0,0,1,3,3,1,0,2,4,1,0,0,2,4,1,0,0,0,0,0,0,0,0,0,1,3,3,1,0,0,0,0,0,0,1,2,3,4,2,0,0,1,1,1,3,3,4,2,0,0,3,3,0,0,0,0,0,0,0,0,0,1,4,2,0,0,0,0,0,0,0,0,0,0,1,2,3,4,2,0,0,0,0,0,0,3,3,0,0,0,0,0,0,0,0,0,3,3,0,0,0,0,0,0,0,0,2,4,3,3,3,3,5,5,3,4,3,0,0,0,3,3,2,4,1,2,4,3,3,4,3,2,3,2,1,3,3,2,4,2,2,4,1,0,0,0,3,3,0,0,0,0,0,1,3,4,6,7,4,6,7,7,6,4,4,4,4,4,4,2,0,1,2,6,3,5,4,3,6,4,4,3,5,4,5,3,4,2,0,0,0,0,0,0,3,3,0,0,1,4,2,3,4,8,8,7,6,9,11,9,6,6,6,6,7,6,6,3,6,4,3,1,0,2,4,1,0,2,4,1,0,0,0,0,5,14,11,-1,-1,-1,-1,-1,-1,-1,-1,-1,-1,-1,-1,-1,-1,-1,-1,-1,-1,-1,-1,-1,-1,-1,-1,-1
-1,-1,-1,-1,-1,-1,-1,-1,-1,-1,-1,-1,-1,-1,-1,-1,-1,-1,-1,-1,-1,-1,-1,-1,-1,-1,-1,-1,-1,-1,-1,-1,-1,-1,-1,-1,-1,-1,-1,-1,-1,-1,-1,-1,-1,-1,-1,-1,-1,-1,-1,-1,-1,-1,-1,-1,-1,-1,-1,-1,-1,-1,-1,21,10,7,6,5,5,4,4,5,6,3,2,4,3,4,2,0,0,0,1,3,4,5,6,7,8,5,9,10,9,9,7,4,6,6,6,6,6,9,9,6,6,6,6,7,8,10,10,9,7,5,3,3,2,1,0,2,4,3,3,2,1,0,0,0,2,4,3,3,4,3,4,5,5,3,1,4,2,4,2,0,3,4,8,8,8,8,4,7,8,7,8,7,8,8,8,8,8,8,9,8,5,8,7,4,4,4,4,3,0,1,4,2,0,0,3,3,0,0,0,2,4,1,0,1,4,2,0,0,0,3,3,0,0,0,0,0,0,0,0,0,0,0,1,4,2,0,0,0,0,0,0,2,4,3,2,1,0,0,0,0,0,0,0,2,4,1,0,3,3,0,0,0,0,0,0,0,0,1,3,3,1,0,0,0,0,0,0,0,0,0,0,2,4,3,2,1,0,0,0,0,0,0,3,3,0,0,0,0,0,0,0,0,0,3,3,0,0,0,0,0,0,0,0,1,2,3,3,3,4,3,2,4,3,4,1,0,0,2,4,2,3,1,1,2,3,3,2,2,4,3,4,2,3,3,3,2,3,4,2,0,0,0,0,2,4,3,2,1,0,1,3,3,5,9,7,5,7,7,7,6,4,3,3,4,4,2,1,1,4,5,6,6,6,6,6,6,4,3,4,3,5,2,4,2,1,0,0,0,0,0,1,5,3,3,3,5,4,5,5,6,7,9,7,6,8,9,8,9,8,7,6,6,6,6,5,3,5,1,0,1,4,2,0,1,4,2,0,0,0,0,0,8,3,-1,-1,-1,-1,-1,-1,-1,-1,-1,-1,-1,-1,-1,-1,-1,-1,-1,-1,-1,-1,-1,-1,-1,-1,-1,-1
-1,-1,-1,-1,-1,-1,-1,-1,-1,-1,-1,-1,-1,-1,-1,-1,-1,-1,-1,-1,-1,-1,-1,-1,-1,-1,-1,-1,-1,-1,-1,-1,-1,-1,-1,-1,-1,-1,-1,-1,-1,-1,-1,-1,-1,-1,-1,-1,-1,-1,-1,-1,-1,-1,-1,-1,-1,-1,-1,-1,-1,-1,-1,22,7,6,10,9,6,4,3,7,5,3,1,2,3,2,2,3,2,1,0,1,2,6,3,8,7,5,8,10,9,9,9,4,6,6,5,6,6,9,9,6,6,6,6,6,9,9,9,11,9,6,5,4,1,0,0,3,3,0,0,0,0,0,0,0,1,2,3,3,2,4,2,6,6,1,3,3,2,4,1,1,4,4,8,8,8,9,7,5,8,7,8,7,8,9,8,8,8,8,8,8,7,8,8,4,4,4,4,3,0,2,4,1,0,0,3,3,0,0,0,3,3,0,0,1,3,2,0,0,0,3,3,0,0,0,0,1,1,1,0,0,0,0,0,3,3,0,0,0,0,0,0,3,3,0,0,0,0,0,0,1,1,1,0,1,4,2,0,3,3,0,0,0,0,0,0,1,2,4,3,1,0,0,0,0,0,0,0,0,1,2,3,4,2,0,0,0,0,0,0,0,0,0,3,3,0,0,0,0,0,0,0,0,0,3,3,0,0,0,0,0,0,0,0,0,0,0,0,0,1,4,2,2,4,4,2,1,2,2,4,3,4,1,0,0,0,0,0,2,4,3,4,2,3,3,4,2,3,3,1,0,0,0,0,1,2,3,4,2,1,3,3,4,5,8,8,5,6,7,7,7,6,2,2,3,4,4,3,7,7,6,6,6,6,6,4,6,2,4,1,3,3,2,4,2,1,0,0,0,1,2,4,5,7,4,6,7,6,9,7,7,6,7,7,7,7,8,9,10,9,6,6,6,6,4,1,4,2,0,1,3,3,1,1,3,3,1,0,0,0,1,2,0,11,-1,-1,-1,-1,-1,-1,-1,-1,-1,-1,-1,-1,-1,-1,-1,-1,-1,-1,-1,-1,-1,-1,-1,-1,-1,-1
-1,-1,-1,-1,-1,-1,-1,-1,-1,-1,-1,-1,-1,-1,-1,-1,-1,-1,-1,-1,-1,-1,-1,-1,-1,-1,-1,-1,-1,-1,-1,-1,-1,-1,-1,-1,-1,-1,-1,-1,-1,-1,-1,-1,-1,-1,-1,-1,-1,-1,-1,-1,-1,-1,-1,-1,-1,-1,-1,-1,-1,-1,-1,22,13,8,9,10,8,9,7,7,5,2,1,2,3,4,4,3,4,4,2,1,1,4,2,5,5,3,4,8,10,8,7,5,5,6,6,5,6,9,10,8,6,6,6,6,6,6,6,9,10,7,6,6,5,3,3,4,2,0,0,0,0,0,0,0,0,1,2,3,4,3,3,5,5,2,4,1,3,3,0,2,4,3,7,8,8,9,8,4,7,7,8,7,8,9,8,8,8,8,8,7,8,7,8,6,4,4,4,3,0,2,4,1,0,0,3,3,0,0,0,2,4,2,1,1,3,3,1,0,0,2,4,1,0,0,1,3,3,4,2,1,0,0,0,3,3,0,0,0,0,0,0,3,3,0,0,0,0,0,0,1,2,1,0,0,2,4,1,3,3,0,0,0,0,0,0,2,4,2,1,0,0,0,0,0,0,0,0,1,3,4,3,2,1,0,0,0,0,0,0,0,0,0,3,3,0,0,0,0,0,0,0,0,0,3,3,0,0,0,0,0,0,0,0,1,1,1,0,0,0,3,3,1,3,4,6,4,4,4,4,6,5,1,0,0,0,1,2,3,4,4,4,3,4,3,4,2,1,1,0,0,0,0,1,1,1,0,3,3,2,4,2,7,7,6,5,6,6,5,6,6,3,3,1,2,3,4,4,8,10,6,5,5,4,5,2,3,2,4,1,2,4,1,2,4,2,0,0,1,4,5,7,11,8,8,8,7,7,7,9,5,9,8,6,7,9,10,9,8,6,7,7,6,5,3,4,3,1,2,4,3,1,2,4,3,1,0,0,0,1,3,4,5,13,-1,-1,-1,-1,-1,-1,-1,-1,-1,-1,-1,-1,-1,-1,-1,-1,-1,-1,-1,-1,-1,-1,-1,-1,-1,-1
-1,-1,-1,-1,-1,-1,-1,-1,-1,-1,-1,-1,-1,-1,-1,-1,-1,-1,-1,-1,-1,-1,-1,-1,-1,-1,-1,-1,-1,-1,-1,-1,-1,-1,-1,-1,-1,-1,-1,-1,-1,-1,-1,-1,-1,-1,-1,-1,-1,-1,-1,-1,-1,-1,-1,-1,-1,-1,-1,-1,-1,-1,-1,19,7,5,7,6,9,8,7,5,4,1,3,4,3,2,1,1,2,2,4,4,4,3,1,4,2,3,4,7,9,9,8,7,8,6,6,6,6,8,9,10,9,9,9,9,6,6,6,9,11,8,9,9,9,6,4,3,1,0,0,1,2,3,3,3,3,4,4,3,2,3,3,3,3,3,3,0,2,4,2,3,3,3,6,8,9,9,8,4,4,7,8,7,8,8,8,8,8,8,8,6,8,7,7,7,6,4,4,3,0,1,4,2,0,0,3,3,0,0,0,1,2,4,4,2,1,3,4,3,2,1,3,4,3,3,4,3,2,2,4,2,0,0,0,3,3,0,0,0,0,0,0,2,4,3,2,1,0,0,0,1,1,1,0,0,1,3,4,4,2,0,0,0,0,0,0,3,3,0,0,0,0,0,0,0,0,0,0,2,4,1,0,1,2,3,2,1,0,0,0,0,0,0,3,3,0,0,0,0,0,0,0,0,0,3,3,0,0,0,0,0,0,0,0,1,2,1,0,0,0,2,4,3,2,4,4,3,2,2,4,7,5,4,3,3,3,5,5,4,4,4,3,3,2,3,3,0,0,1,2,2,1,0,2,4,2,1,5,3,6,4,4,6,7,7,6,6,5,3,4,4,3,3,4,4,3,4,4,7,8,3,2,2,3,3,1,2,4,3,1,1,4,2,0,3,3,0,1,4,6,7,9,13,13,9,9,8,7,7,6,7,7,9,9,7,7,9,8,9,7,7,7,7,6,4,4,3,4,4,2,1,2,4,2,1,1,1,0,0,2,4,1,4,21,-1,-1,-1,-1,-1,-1,-1,-1,-1,-1,-1,-1,-1,-1,-1,-1,-1,-1,-1,-1,-1,-1,-1,-1,-1,-1
-1,-1,-1,-1,-1,-1,-1,-1,-1,-1,-1,-1,-1,-1,-1,-1,-1,-1,-1,-1,-1,-1,-1,-1,-1,-1,-1,-1,-1,-1,-1,-1,-1,-1,-1,-1,-1,-1,-1,-1,-1,-1,-1,-1,-1,-1,-1,-1,-1,-1,-1,-1,-1,-1,-1,-1,-1,-1,-1,-1,-1,-1,-1,6,9,6,2,2,5,6,4,1,2,2,4,1,0,0,0,2,3,3,1,2,2,2,4,3,1,1,2,6,8,9,6,9,7,6,6,6,6,6,8,9,9,9,9,8,7,6,6,7,8,10,9,9,8,6,4,5,5,3,3,4,4,3,3,3,3,2,1,1,3,3,1,3,3,2,4,1,1,2,4,5,4,4,4,8,9,9,8,4,4,8,8,8,7,8,7,8,7,8,8,4,7,8,5,9,7,4,4,3,2,2,2,4,1,0,3,3,0,0,0,0,0,1,2,4,3,1,2,3,4,3,1,2,3,3,2,1,0,0,2,4,1,0,0,3,3,0,0,0,0,0,0,1,2,3,4,2,0,0,1,1,1,0,0,0,0,1,2,2,1,0,0,0,0,0,0,3,3,0,0,0,0,0,0,0,0,0,0,3,3,0,0,2,4,3,4,2,0,0,0,0,0,0,3,3,0,0,0,0,0,0,0,0,0,3,3,0,0,0,0,0,0,0,0,1,1,1,0,1,1,1,2,3,4,2,3,3,4,4,3,6,7,4,4,4,4,6,6,4,3,4,4,2,1,3,3,0,0,2,4,4,2,0,3,2,4,4,4,6,5,5,5,4,5,6,4,4,3,3,4,2,4,3,2,1,2,4,4,5,4,0,0,1,2,4,4,2,2,2,1,1,4,2,0,5,4,3,5,6,6,9,11,10,12,8,8,7,6,6,6,6,5,7,8,9,6,6,9,11,9,6,7,5,5,3,3,3,2,1,0,1,4,2,0,2,4,2,0,0,3,3,0,4,7,-1,-1,-1,-1,-1,-1,-1,-1,-1,-1,-1,-1,-1,-1,-1,-1,-1,-1,-1,-1,-1,-1,-1,-1,-1,-1
-1,-1,-1,-1,-1,-1,-1,-1,-1,-1,-1,-1,-1,-1,-1,-1,-1,-1,-1,-1,-1,-1,-1,-1,-1,-1,-1,-1,-1,-1,-1,-1,-1,-1,-1,-1,-1,-1,-1,-1,-1,-1,-1,-1,-1,-1,-1,-1,-1,-1,-1,-1,-1,-1,-1,-1,-1,-1,-1,-1,-1,-1,-1,2,10,4,4,4,4,3,2,4,2,3,3,0,0,1,4,7,3,5,7,7,7,4,4,2,1,1,1,2,5,8,10,8,9,8,9,6,7,6,5,6,6,6,6,6,6,6,6,6,6,6,6,7,7,7,3,6,3,3,3,2,1,0,1,2,3,3,3,4,3,1,0,2,4,2,4,2,0,0,1,7,7,4,5,8,9,9,8,6,6,10,10,7,7,7,7,7,6,8,7,4,7,9,7,9,10,3,4,2,4,4,2,4,2,0,2,4,2,1,1,1,1,0,1,3,3,1,0,0,1,4,2,0,0,0,0,0,0,0,1,4,2,0,0,2,4,3,3,3,3,2,1,0,0,0,3,3,0,0,2,4,2,0,0,0,0,0,0,0,0,0,0,0,0,0,0,2,4,1,0,0,1,2,3,1,1,3,2,2,4,2,1,2,4,3,4,2,0,0,0,0,0,1,4,2,0,0,0,0,0,0,0,0,1,4,2,1,1,0,0,0,0,0,0,0,0,0,0,1,2,1,0,0,2,4,3,4,3,2,3,6,5,3,3,3,3,4,5,4,4,2,2,4,4,4,2,1,2,4,2,2,4,1,2,3,3,6,7,4,4,6,5,5,7,7,6,5,2,4,3,4,2,0,1,2,4,3,4,2,2,0,0,0,0,1,3,3,2,2,3,4,3,1,2,7,7,4,9,9,9,9,8,7,7,3,4,6,7,9,7,7,7,6,5,7,9,9,9,8,6,4,5,2,2,1,0,1,1,1,0,1,3,2,0,2,4,2,2,3,4,2,2,5,15,-1,-1,-1,-1,-1,-1,-1,-1,-1,-1,-1,-1,-1,-1,-1,-1,-1,-1,-1,-1,-1,-1,-1,-1,-1,-1
-1,-1,-1,-1,-1,-1,-1,-1,-1,-1,-1,-1,-1,-1,-1,-1,-1,-1,-1,-1,-1,-1,-1,-1,-1,-1,-1,-1,-1,-1,-1,-1,-1,-1,-1,-1,-1,-1,-1,-1,-1,-1,-1,-1,-1,-1,-1,-1,-1,-1,-1,-1,-1,-1,-1,-1,-1,-1,-1,-1,-1,-1,-1,21,5,1,1,2,2,2,4,3,8,7,5,6,7,9,7,7,6,5,8,9,9,7,6,5,5,4,3,3,3,8,9,10,7,9,8,7,8,9,6,5,6,6,6,6,6,6,6,7,9,6,5,5,9,7,5,3,6,2,1,0,0,0,2,4,3,3,3,2,1,0,0,1,2,4,3,4,1,0,0,7,8,4,5,6,8,9,8,7,8,7,11,10,6,7,8,7,7,6,6,4,7,9,10,5,6,4,4,3,2,2,1,3,3,0,1,2,4,2,2,4,2,0,1,3,3,1,0,0,0,3,3,0,0,0,0,0,0,0,0,3,3,0,0,1,2,3,3,3,3,3,1,0,0,0,3,3,0,0,2,4,2,0,0,0,0,0,0,0,0,0,0,0,0,0,0,1,3,4,2,1,1,4,2,6,5,3,3,2,2,4,4,2,2,3,2,1,0,0,0,0,0,2,4,1,0,0,0,0,0,0,0,0,2,4,2,4,2,0,0,0,0,0,1,1,1,0,0,1,1,1,0,0,1,2,4,4,3,4,4,7,8,3,3,3,4,3,2,2,2,4,2,1,2,2,1,2,4,2,1,1,4,2,1,6,6,5,7,4,6,5,6,7,6,5,5,5,3,3,1,1,1,0,2,4,2,1,2,4,2,0,0,0,0,0,1,3,3,3,3,2,1,2,4,6,5,5,8,9,9,8,7,7,3,5,5,6,8,7,10,7,6,5,9,8,8,9,8,6,4,3,1,2,3,3,1,2,4,2,0,1,4,2,0,1,1,3,4,3,2,2,4,9,11,-1,-1,-1,-1,-1,-1,-1,-1,-1,-1,-1,-1,-1,-1,-1,-1,-1,-1,-1,-1,-1,-1,-1,-1,-1,-1
-1,-1,-1,-1,-1,-1,-1,-1,-1,-1,-1,-1,-1,-1,-1,-1,-1,-1,-1,-1,-1,-1,-1,-1,-1,-1,-1,-1,-1,-1,-1,-1,-1,-1,-1,-1,-1,-1,-1,-1,-1,-1,-1,-1,-1,-1,-1,-1,-1,-1,-1,-1,-1,-1,-1,-1,-1,-1,-1,-1,-1,-1,-1,6,7,1,1,2,5,5,4,4,9,10,11,9,8,8,8,7,7,7,8,8,8,8,7,6,6,4,3,4,5,4,3,5,7,6,6,6,9,11,9,6,7,8,9,9,8,6,7,8,10,8,7,8,7,7,6,6,6,5,5,2,1,0,3,3,0,0,0,0,0,0,0,0,0,2,4,3,3,1,0,7,8,4,4,4,8,9,8,8,8,8,9,8,6,8,8,8,6,4,6,6,8,9,8,4,4,4,4,3,0,0,0,3,3,0,0,0,3,3,2,4,2,0,1,3,4,2,1,0,0,3,3,0,0,0,0,0,0,0,1,4,2,0,0,0,0,0,0,1,3,3,1,0,0,0,2,4,1,0,1,1,1,0,0,0,0,0,0,0,0,0,0,0,0,0,0,0,1,2,4,4,2,2,3,2,5,4,3,1,0,1,2,4,2,0,0,0,0,0,0,0,0,3,3,0,0,0,0,0,0,0,0,0,3,3,2,4,2,0,0,1,2,3,4,3,2,0,0,0,0,0,0,1,2,4,4,4,4,2,2,8,7,3,3,3,2,2,4,4,2,2,4,1,0,0,1,4,2,0,0,0,3,3,1,7,7,5,6,4,6,6,5,5,3,3,5,4,3,1,0,1,1,1,3,3,0,0,0,3,3,0,0,0,0,0,1,4,2,4,2,2,3,6,5,8,7,8,9,9,9,9,8,10,7,10,7,10,7,8,6,7,10,7,8,8,6,6,5,4,4,1,1,4,3,4,2,3,2,4,1,0,3,3,0,0,2,4,1,0,1,4,2,4,19,-1,-1,-1,-1,-1,-1,-1,-1,-1,-1,-1,-1,-1,-1,-1,-1,-1,-1,-1,-1,-1,-1,-1,-1,-1,-1
-1,-1,-1,-1,-1,-1,-1,-1,-1,-1,-1,-1,-1,-1,-1,-1,-1,-1,-1,-1,-1,-1,-1,-1,-1,-1,-1,-1,-1,-1,-1,-1,-1,-1,-1,-1,-1,-1,-1,-1,-1,-1,-1,-1,-1,-1,-1,-1,-1,-1,-1,-1,-1,-1,-1,-1,-1,-1,-1,-1,-1,-1,14,8,5,2,3,4,4,5,4,7,9,10,11,9,6,6,6,8,6,6,6,4,4,6,6,6,8,7,4,5,4,2,1,4,5,6,6,6,8,9,8,7,6,9,9,10,10,9,9,9,7,7,9,10,9,8,6,6,6,6,5,4,4,2,2,4,1,0,0,0,0,0,0,0,0,1,4,2,3,3,1,7,8,4,4,6,8,9,8,8,7,8,9,8,7,8,8,7,6,6,7,7,6,8,8,4,4,4,4,3,0,0,0,3,3,0,0,1,4,2,1,1,1,0,0,1,2,4,2,0,0,3,3,0,0,0,0,0,0,1,3,3,1,0,0,0,0,0,0,2,4,1,0,0,0,0,1,4,2,0,0,1,2,3,3,3,3,3,3,2,1,0,0,0,0,0,0,0,0,0,1,3,3,1,0,1,2,2,1,0,0,0,0,3,3,0,0,0,0,0,0,0,0,3,3,0,0,0,0,0,0,0,0,1,4,2,1,1,2,3,3,4,4,3,2,3,4,3,3,3,3,3,3,4,4,2,1,1,2,4,3,4,5,5,3,2,1,2,4,3,3,1,3,4,3,3,4,3,1,0,0,0,3,3,1,4,7,6,6,4,3,5,4,3,4,3,4,5,1,2,3,4,3,2,3,3,0,0,0,3,3,0,0,0,0,0,1,4,2,5,5,5,6,9,9,10,9,9,10,10,10,10,9,10,11,9,9,7,10,7,7,8,8,8,7,7,6,4,3,3,1,0,2,4,1,2,4,3,3,4,2,1,4,2,0,1,4,2,0,0,2,4,1,4,14,18,-1,-1,-1,-1,-1,-1,-1,-1,-1,-1,-1,-1,-1,-1,-1,-1,-1,-1,-1,-1,-1,-1,-1,-1,-1
-1,-1,-1,-1,-1,-1,-1,-1,-1,-1,-1,-1,-1,-1,-1,-1,-1,-1,-1,-1,-1,-1,-1,-1,-1,-1,-1,-1,-1,-1,-1,-1,-1,-1,-1,-1,-1,-1,-1,-1,-1,-1,-1,-1,-1,-1,-1,-1,-1,-1,-1,-1,-1,-1,-1,-1,-1,-1,-1,-1,-1,-1,11,18,8,3,4,4,4,5,5,7,9,5,5,5,5,4,4,6,7,7,4,4,4,4,7,7,7,7,5,4,3,3,1,2,2,5,6,6,6,6,7,7,8,6,6,8,9,9,7,8,8,7,7,8,9,8,7,6,6,6,6,4,2,4,3,5,3,3,3,3,3,3,3,2,1,1,4,2,2,3,1,7,8,6,6,7,7,9,8,7,7,7,9,7,8,8,8,7,8,6,6,6,4,8,8,4,4,4,4,3,0,0,0,3,3,0,0,2,4,1,0,0,0,0,0,0,1,4,2,0,0,3,3,0,0,0,0,1,2,4,3,1,0,0,0,0,0,0,1,4,2,0,0,0,0,0,0,2,4,2,1,2,4,3,3,3,3,3,3,4,4,3,3,3,3,3,3,2,1,0,0,2,4,1,0,0,0,0,0,0,0,0,0,3,3,0,0,0,0,0,0,0,0,3,3,0,0,0,0,0,0,0,0,2,4,1,0,2,4,3,3,2,1,0,0,1,2,3,3,3,3,3,3,2,1,0,0,0,0,1,4,2,4,5,4,4,3,1,3,3,2,0,1,2,3,3,2,1,0,0,0,0,2,4,1,4,6,7,9,7,3,6,5,4,5,3,4,2,2,4,3,2,3,3,5,3,3,3,3,4,2,0,1,2,3,3,5,4,5,6,6,6,7,9,10,9,8,7,8,9,11,9,6,8,10,7,6,6,6,4,6,6,7,6,6,4,5,2,4,1,0,1,4,2,0,1,3,3,2,2,4,4,3,1,1,3,3,1,0,1,4,2,0,4,14,19,-1,-1,-1,-1,-1,-1,-1,-1,-1,-1,-1,-1,-1,-1,-1,-1,-1,-1,-1,-1,-1,-1,-1,-1,-1
-1,-1,-1,-1,-1,-1,-1,-1,-1,-1,-1,-1,-1,-1,-1,-1,-1,-1,-1,-1,-1,-1,-1,-1,-1,-1,-1,-1,-1,-1,-1,-1,-1,-1,-1,-1,-1,-1,-1,-1,-1,-1,-1,-1,-1,-1,-1,-1,-1,-1,-1,-1,-1,-1,-1,-1,-1,-1,-1,-1,-1,-1,-1,12,3,5,5,6,6,5,5,4,6,4,1,1,2,2,5,6,8,9,8,8,8,8,9,9,7,5,5,7,6,5,5,4,1,1,5,5,6,7,7,10,8,6,6,6,6,6,6,9,9,6,6,7,10,9,7,8,8,6,6,7,6,5,4,5,5,3,3,3,3,3,3,4,4,4,3,2,5,4,3,9,7,7,7,6,7,8,9,8,7,9,8,9,6,10,7,8,7,6,4,4,6,8,7,4,4,4,4,3,0,0,0,3,3,0,1,4,2,0,0,0,0,0,1,2,4,3,1,0,0,3,3,0,0,0,0,2,4,2,1,0,0,0,0,0,1,2,4,3,1,0,0,0,0,0,0,1,2,4,4,4,2,0,0,0,0,0,0,1,2,3,3,3,3,3,3,4,2,0,1,4,2,0,0,0,0,0,0,0,0,0,0,3,3,0,0,0,1,2,3,2,1,3,3,0,0,0,0,0,0,0,1,4,2,0,0,3,3,0,0,0,0,0,0,0,0,0,0,0,0,0,0,0,0,1,2,3,2,1,2,4,3,3,4,3,3,4,2,2,1,0,1,2,3,3,2,2,2,3,3,2,1,3,3,2,5,8,9,9,6,7,6,7,6,2,4,1,2,4,3,3,4,3,5,6,4,4,3,2,1,2,5,5,6,7,8,6,9,9,9,7,7,9,10,9,6,6,6,8,9,6,4,5,6,4,4,5,5,3,4,4,6,2,1,4,2,3,3,0,0,2,4,1,0,0,1,1,1,1,2,2,1,0,2,4,1,0,0,2,4,1,0,4,13,7,-1,-1,-1,-1,-1,-1,-1,-1,-1,-1,-1,-1,-1,-1,-1,-1,-1,-1,-1,-1,-1,-1,-1,-1,-1
-1,-1,-1,-1,-1,-1,-1,-1,-1,-1,-1,-1,-1,-1,-1,-1,-1,-1,-1,-1,-1,-1,-1,-1,-1,-1,-1,-1,-1,-1,-1,-1,-1,-1,-1,-1,-1,-1,-1,-1,-1,-1,-1,-1,-1,-1,-1,-1,-1,-1,-1,-1,-1,-1,-1,-1,-1,-1,-1,-1,-1,-1,-1,6,9,6,6,6,5,2,1,3,4,3,2,3,3,5,6,9,11,8,8,8,8,8,8,11,9,7,6,6,7,7,6,5,1,0,2,4,5,6,7,11,11,6,6,6,7,8,10,9,9,7,6,8,9,7,8,10,11,6,8,9,7,8,8,7,4,3,3,3,3,3,3,3,4,4,4,4,4,5,4,7,9,6,6,7,7,9,8,8,10,7,8,7,7,9,9,7,6,7,6,4,7,8,5,4,4,4,4,3,0,0,0,2,4,1,2,4,1,0,0,1,2,3,4,4,2,1,0,0,0,3,3,0,0,0,0,3,3,0,0,0,0,0,0,1,3,4,2,1,0,0,0,0,0,0,0,0,0,1,2,2,1,0,0,0,0,0,0,0,0,0,0,0,0,0,0,3,3,0,1,3,3,1,0,1,2,2,1,0,0,0,0,3,3,0,0,0,2,4,3,4,2,3,3,0,0,0,0,1,1,1,2,4,1,0,0,2,4,2,1,0,0,0,0,0,0,0,0,0,0,0,0,1,2,4,4,3,4,3,1,2,3,4,2,3,3,2,4,3,1,1,3,4,3,3,4,3,4,3,3,4,3,1,3,5,6,6,8,7,8,8,8,8,5,2,4,1,1,2,3,3,2,5,6,5,5,5,5,3,4,4,4,5,5,8,8,9,10,10,10,10,9,10,10,7,8,7,6,7,6,4,3,5,5,4,3,3,4,4,2,3,3,0,2,4,1,4,2,0,0,3,3,0,0,0,0,0,0,0,0,0,0,1,4,2,0,0,1,4,2,0,0,4,8,20,-1,-1,-1,-1,-1,-1,-1,-1,-1,-1,-1,-1,-1,-1,-1,-1,-1,-1,-1,-1,-1,-1,-1,-1,-1
-1,-1,-1,-1,-1,-1,-1,-1,-1,-1,-1,-1,-1,-1,-1,-1,-1,-1,-1,-1,-1,-1,-1,-1,-1,-1,-1,-1,-1,-1,-1,-1,-1,-1,-1,-1,-1,-1,-1,-1,-1,-1,-1,-1,-1,-1,-1,-1,-1,-1,-1,-1,-1,-1,-1,-1,-1,-1,-1,-1,-1,-1,-1,15,8,6,6,5,2,2,1,5,6,5,5,4,4,6,6,6,7,2,3,3,3,3,2,7,6,7,7,6,6,6,7,5,2,0,1,3,6,6,6,13,11,6,6,6,6,9,7,11,9,6,6,6,6,6,7,12,10,7,9,8,6,7,8,9,4,3,3,3,3,3,3,3,4,4,4,4,3,4,5,7,6,7,7,6,7,8,9,9,8,7,7,7,7,8,10,6,6,6,6,4,7,8,7,7,3,4,4,3,0,0,0,1,4,2,3,3,0,0,0,2,4,3,2,1,1,2,3,2,1,3,3,0,0,0,0,3,3,0,0,0,0,0,0,2,4,1,0,0,0,0,0,0,0,0,0,0,0,0,0,0,0,0,0,0,0,0,0,0,0,0,0,0,0,0,0,2,4,3,2,2,4,4,2,3,4,4,3,1,0,1,2,4,2,0,0,1,4,2,0,3,3,3,3,0,0,0,0,2,4,2,3,3,0,0,0,1,2,4,3,1,0,0,0,0,0,0,0,0,0,0,0,2,4,3,3,3,2,3,4,2,1,2,4,1,3,4,2,4,2,2,4,1,0,0,1,1,1,1,1,1,3,3,1,1,5,5,6,6,9,9,10,8,2,1,4,2,0,0,0,0,2,5,6,6,6,6,3,3,2,2,4,4,6,7,8,7,9,9,9,9,7,9,9,10,7,6,6,6,5,5,1,7,8,3,4,4,2,2,3,4,2,1,4,2,2,4,1,0,0,3,3,0,0,0,0,0,0,0,0,0,0,2,4,1,0,0,2,4,1,0,0,4,8,20,-1,-1,-1,-1,-1,-1,-1,-1,-1,-1,-1,-1,-1,-1,-1,-1,-1,-1,-1,-1,-1,-1,-1,-1,-1
-1,-1,-1,-1,-1,-1,-1,-1,-1,-1,-1,-1,-1,-1,-1,-1,-1,-1,-1,-1,-1,-1,-1,-1,-1,-1,-1,-1,-1,-1,-1,-1,-1,-1,-1,-1,-1,-1,-1,-1,-1,-1,-1,-1,-1,-1,-1,-1,-1,-1,-1,-1,-1,-1,-1,-1,-1,-1,-1,-1,-1,-1,-1,15,5,4,4,4,4,3,6,10,7,6,6,5,6,5,5,5,1,4,2,0,0,1,4,3,5,6,6,6,6,7,9,12,10,6,4,5,5,3,3,11,11,6,6,6,5,5,4,8,8,7,8,9,9,9,6,8,10,7,7,9,9,6,4,6,7,5,3,3,3,3,3,4,4,3,4,4,5,6,6,9,9,10,9,8,7,8,8,9,9,7,8,7,7,8,8,4,4,4,4,3,6,8,7,7,3,4,5,6,2,1,0,0,3,3,3,3,0,0,0,3,3,0,0,0,1,4,2,2,2,4,2,0,0,0,0,3,3,0,0,0,0,0,0,3,3,0,0,0,0,0,0,0,0,0,0,0,0,0,0,0,0,0,0,0,0,0,1,2,3,3,3,3,2,1,1,1,2,3,3,1,1,2,4,3,2,1,4,2,0,1,4,2,3,2,1,2,4,1,0,2,4,4,2,0,0,0,0,3,2,4,2,4,2,1,0,1,2,3,3,1,0,0,0,0,0,0,0,0,0,0,0,3,4,4,2,2,4,2,2,5,2,3,3,1,1,2,4,4,6,4,2,0,0,0,0,0,0,1,2,1,2,3,4,3,1,2,6,8,13,12,10,10,2,0,2,4,3,5,6,7,8,7,5,4,3,2,8,7,7,8,6,4,5,6,6,5,6,6,4,3,4,6,6,6,3,5,6,5,6,3,3,9,10,3,2,4,6,4,4,4,3,4,3,1,4,2,0,1,2,4,2,0,0,1,2,3,3,3,3,3,3,4,2,0,0,1,4,2,0,0,0,2,5,12,-1,-1,-1,-1,-1,-1,-1,-1,-1,-1,-1,-1,-1,-1,-1,-1,-1,-1,-1,-1,-1,-1,-1,-1,-1
-1,-1,-1,-1,-1,-1,-1,-1,-1,-1,-1,-1,-1,-1,-1,-1,-1,-1,-1,-1,-1,-1,-1,-1,-1,-1,-1,-1,-1,-1,-1,-1,-1,-1,-1,-1,-1,-1,-1,-1,-1,-1,-1,-1,-1,-1,-1,-1,-1,-1,-1,-1,-1,-1,-1,-1,-1,-1,-1,-1,-1,-1,-1,-1,4,4,4,4,3,2,6,5,8,6,7,6,4,2,3,3,1,4,2,1,2,3,4,4,3,5,6,5,5,5,9,13,8,8,7,3,2,1,0,5,6,7,6,6,6,5,4,5,7,6,9,9,9,8,6,8,8,7,9,9,7,7,6,6,7,7,6,4,4,4,4,4,3,5,5,4,5,5,8,8,8,9,9,7,6,7,8,9,8,8,8,8,5,8,7,4,4,4,4,3,5,8,7,6,4,2,5,4,3,1,0,0,3,3,3,3,0,0,0,3,3,0,0,0,1,2,3,3,3,2,1,0,0,0,0,3,3,0,0,0,0,0,0,3,3,0,0,0,0,0,0,0,0,0,0,0,0,0,0,0,0,0,1,2,3,3,4,4,3,3,3,3,4,3,2,2,1,1,3,2,0,1,2,4,2,1,2,4,3,2,2,3,3,4,2,2,4,1,0,1,2,2,1,0,0,0,0,3,4,3,2,2,4,2,0,2,4,3,2,1,0,0,0,0,0,0,0,0,0,0,0,3,3,2,3,3,2,1,0,4,7,2,2,3,3,3,3,6,4,2,2,3,3,3,3,2,1,1,1,3,3,2,2,3,4,2,6,8,11,12,9,6,3,1,1,2,3,5,7,8,7,6,5,6,4,5,7,8,8,7,6,5,7,7,5,4,5,5,3,3,3,6,6,3,5,4,5,6,4,5,4,6,4,2,2,5,7,5,3,3,3,2,1,3,3,1,0,2,4,2,1,0,1,3,4,3,3,3,3,3,3,2,1,0,1,3,3,1,0,0,0,2,8,9,-1,-1,-1,-1,-1,-1,-1,-1,-1,-1,-1,-1,-1,-1,-1,-1,-1,-1,-1,-1,-1,-1,-1,-1,-1
-1,-1,-1,-1,-1,-1,-1,-1,-1,-1,-1,-1,-1,-1,-1,-1,-1,-1,-1,-1,-1,-1,-1,-1,-1,-1,-1,-1,-1,-1,-1,-1,-1,-1,-1,-1,-1,-1,-1,-1,-1,-1,-1,-1,-1,-1,-1,-1,-1,-1,-1,-1,-1,-1,-1,-1,-1,-1,-1,-1,-1,-1,-1,-1,4,4,5,6,4,3,2,4,4,4,3,1,1,0,3,3,3,3,1,3,4,3,3,4,4,2,4,4,5,4,5,9,9,4,6,5,1,2,3,3,5,7,8,9,8,6,6,6,7,7,6,8,9,9,10,7,9,7,7,9,9,7,8,8,7,7,7,6,4,6,7,7,7,7,6,4,6,9,7,4,4,6,6,5,7,9,7,8,8,8,8,7,7,7,7,6,3,4,4,3,5,8,7,7,6,1,4,3,4,1,0,0,3,3,3,3,0,0,0,3,3,0,0,0,0,0,0,3,3,0,0,0,0,0,0,3,3,0,0,0,0,0,0,3,3,0,1,2,3,3,3,2,1,0,0,1,2,3,3,3,3,3,4,4,3,3,3,3,3,3,3,3,2,3,3,3,2,3,4,5,3,4,4,3,4,4,3,3,3,4,4,2,1,2,4,1,4,2,0,0,0,0,0,0,0,0,0,2,3,3,1,0,3,3,0,3,3,0,0,0,0,0,0,0,0,0,0,0,0,1,2,4,2,0,0,0,0,0,0,5,4,3,3,3,3,3,3,7,7,4,4,3,3,3,3,4,2,1,3,3,3,4,1,0,3,4,6,9,11,9,7,3,3,4,3,5,6,5,5,5,4,5,5,4,4,3,4,3,4,7,8,6,7,7,7,5,4,4,4,2,6,7,7,6,4,4,5,5,4,4,4,2,4,2,4,4,3,0,0,0,0,1,3,3,1,1,2,4,2,0,0,0,2,4,1,1,1,1,0,0,0,0,0,1,3,3,1,0,0,0,0,5,8,7,20,-1,-1,-1,-1,-1,-1,-1,-1,-1,-1,-1,-1,-1,-1,-1,-1,-1,-1,-1,-1,-1,-1,-1,-1
